0.57230592 0.57230383 0.57230365 0.57230484 0.57230639 0.57230753 0.57230765 0.57230675 0.57230556 0.57230425 0.57230359 0.57230359 0.57230401 0.57230467 0.57230508 0.57230514 0.57230490 0.57230431 0.57230383 0.57230359 0.57230353 0.57230365 0.57230377 0.57230395 0.57230395 0.57230401 0.57230383 0.57230371 0.57230359 0.57230353 0.57230353 0.57230359 0.57230365 0.57230377 0.57230383 0.57230383 0.57230383 0.57230383 0.57230377 0.57230371 0.57230371 0.57230359 0.57230359 0.57230359 0.57230359 0.57230359 0.57230353 0.57230353 0.57230353 0.57230353 0.57230353 0.57230353 0.57230341 0.57230353 0.57230347 0.57230353 0.57230353 0.57230353 0.57230359 0.57230359 0.57230353 0.57230365 0.57230371 0.57230371 0.57230377 0.57230383 0.57230401 0.57230395 0.57230407 0.57230413 0.57230425 0.57230425 0.57230443 0.57230443 0.57230449 0.57230449 0.57230443 0.57230443 0.57230443 0.57230443 0.57230443 0.57230443 0.57230461 0.57230461 0.57230484 0.57230490 0.57230514 0.57230550 0.57230580 0.57230639 0.57230681 0.57230777 0.57230896 0.57231075 0.57231331 0.57231694 0.57232213 0.57232940 0.57233971 0.57235444 0.57237566 0.57240599 0.57244986 0.57251292 0.57260257 0.57272643 0.57289076 0.57309526 0.57332343 0.57353377 0.57365447 0.57360578 0.57335252 0.57295609 0.57256627 0.57233578 0.57232404 0.57247537 0.57266700 0.57277876 0.57275021 0.57260501 0.57243043 0.57231933 0.57231373 0.57238758 0.57247543 0.57251650 0.57248837 0.57241344 0.57233912 0.57230431 0.57231778 0.57235861 0.57239485 0.57240307 0.57238060 0.57234323 0.57231289 0.57230365 0.57231492 0.57233512 0.57234991 0.57235050 0.57233775 0.57232022 0.57230717 0.57230353 0.57230884 0.57231784 0.57232457 0.57232523 0.57232004 0.57231236 0.57230610 0.57230341 0.57230484 0.57230824 0.57231152 0.57231289 0.57231176 0.57230890 0.57230598 0.57230389 0.57230341 0.57230419 0.57230538 0.57230639 0.57230699 0.57230675 0.57230604 0.57230484 0.57230389 0.57230353 0.57230353 0.57230389 0.57230431 0.57230461 0.57230467 0.57230443 0.57230407 0.57230377 0.57230347 0.57230341 0.57230347 0.57230353 0.57230371 0.57230389 0.57230407 0.57230407 0.57230401 0.57230395 0.57230383 0.57230359 0.57230359 0.57230341 0.57230341 0.57230341 0.57230347 0.57230359 0.57230365 0.57230371 0.57230377 0.57230377 0.57230371 0.57230377 0.57230371 0.57230359 0.57230365 0.57230359 0.57230359 0.57230359 0.57230365 0.57230359 0.57230365 0.57230371 0.57230353 0.57230353 0.57230365 0.57230365 0.57230365 0.57230359 0.57230383 0.57230377 0.57230383 0.57230377 0.57230383 0.57230395 0.57230395 0.57230395 0.57230413 0.57230413 0.57230437 0.57230437 0.57230449 0.57230467 0.57230467 0.57230479 0.57230502 0.57230508 0.57230520 0.57230532 0.57230544 0.57230556 0.57230592 0.57230633 0.57230699 0.57230800 0.57230967 0.57231182 0.57231504 0.57231945 0.57232594 0.57233506 0.57234812 0.57236713 0.57239395 0.57243264 0.57248807 0.57256716 0.57267767 0.57282668 0.57301670 0.57323891 0.57346141 0.57362294
0.57230341 0.57230341 0.57230330 0.57230335 0.57230335 0.57230330 0.57230330 0.57230324 0.57230324 0.57230335 0.57230335 0.57230335 0.57230341 0.57230353 0.57230365 0.57230395 0.57230413 0.57230449 0.57230496 0.57230556 0.57230651 0.57230794 0.57230967 0.57231224 0.57231587 0.57232112 0.57232910 0.57234108 0.57235861 0.57238430 0.57242203 0.57247752 0.57255787 0.57267261 0.57283109 0.57303810 0.57328445 0.57353550 0.57372224 0.57375109 0.57355100 0.57314891 0.57269353 0.57237756 0.57230979 0.57245755 0.57268411 0.57283461 0.57281864 0.57265282 0.57244539 0.57231730 0.57232040 0.57241571 0.57251662 0.57255000 0.57249832 0.57240230 0.57232416 0.57230413 0.57233846 0.57239002 0.57241809 0.57240492 0.57236332 0.57232165 0.57230318 0.57231241 0.57233644 0.57235551 0.57235670 0.57234102 0.57231963 0.57230526 0.57230389 0.57231265 0.57232344 0.57232904 0.57232636 0.57231796 0.57230884 0.57230353 0.57230371 0.57230800 0.57231271 0.57231474 0.57231337 0.57230973 0.57230580 0.57230335 0.57230318 0.57230461 0.57230663 0.57230783 0.57230783 0.57230669 0.57230502 0.57230365 0.57230306 0.57230312 0.57230383 0.57230449 0.57230490 0.57230496 0.57230443 0.57230383 0.57230324 0.57230294 0.57230300 0.57230324 0.57230341 0.57230353 0.57230371 0.57230359 0.57230341 0.57230318 0.57230306 0.57230300 0.57230294 0.57230306 0.57230312 0.57230306 0.57230318 0.57230312 0.57230312 0.57230306 0.57230300 0.57230294 0.57230294 0.57230306 0.57230300 0.57230318 0.57230312 0.57230306 0.57230306 0.57230312 0.57230300 0.57230294 0.57230288 0.57230300 0.57230300 0.57230300 0.57230306 0.57230300 0.57230306 0.57230300 0.57230288 0.57230288 0.57230294 0.57230282 0.57230294 0.57230294 0.57230300 0.57230300 0.57230288 0.57230300 0.57230288 0.57230300 0.57230294 0.57230294 0.57230300 0.57230300 0.57230294 0.57230294 0.57230294 0.57230294 0.57230294 0.57230294 0.57230300 0.57230300 0.57230300 0.57230294 0.57230282 0.57230306 0.57230294 0.57230294 0.57230288 0.57230294 0.57230294 0.57230294 0.57230294 0.57230294 0.57230300 0.57230294 0.57230300 0.57230300 0.57230294 0.57230318 0.57230300 0.57230288 0.57230288 0.57230300 0.57230294 0.57230300 0.57230294 0.57230294 0.57230294 0.57230300 0.57230306 0.57230312 0.57230318 0.57230324 0.57230341 0.57230371 0.57230413 0.57230467 0.57230580 0.57230747 0.57231027 0.57231528 0.57232374 0.57233775 0.57236159 0.57240170 0.57246959 0.57258332 0.57277131 0.57307357 0.57353419 0.57416731 0.57487994 0.57537854 0.57522821 0.57425934 0.57299703 0.57232106 0.57257950 0.57329422 0.57367378 0.57333362 0.57264441 0.57230353 0.57254243 0.57294923 0.57301086 0.57267445 0.57234442 0.57235485 0.57259679 0.57272267 0.57258284 0.57236314 0.57231152 0.57243651 0.57254231 0.57249331 0.57236141 0.57230312 0.57236052 0.57243425 0.57242620 0.57235259 0.57230407 0.57232559 0.57237357 0.57238233 0.57234401 0.57230711 0.57230973 0.57233810 0.57235175 0.57233495 0.57230985 0.57230371 0.57231718 0.57232940
0.57230300 0.57230300 0.57230306 0.57230306 0.57230312 0.57230306 0.57230306 0.57230300 0.57230300 0.57230294 0.57230306 0.57230306 0.57230306 0.57230306 0.57230300 0.57230300 0.57230300 0.57230306 0.57230300 0.57230300 0.57230300 0.57230300 0.57230300 0.57230300 0.57230300 0.57230300 0.57230300 0.57230300 0.57230294 0.57230300 0.57230300 0.57230300 0.57230300 0.57230300 0.57230294 0.57230294 0.57230294 0.57230300 0.57230306 0.57230294 0.57230300 0.57230300 0.57230300 0.57230300 0.57230300 0.57230300 0.57230300 0.57230294 0.57230300 0.57230300 0.57230294 0.57230294 0.57230294 0.57230294 0.57230294 0.57230300 0.57230300 0.57230300 0.57230300 0.57230288 0.57230306 0.57230306 0.57230300 0.57230306 0.57230294 0.57230294 0.57230294 0.57230294 0.57230288 0.57230294 0.57230288 0.57230300 0.57230294 0.57230294 0.57230300 0.57230300 0.57230294 0.57230294 0.57230300 0.57230288 0.57230294 0.57230294 0.57230294 0.57230294 0.57230300 0.57230294 0.57230306 0.57230294 0.57230288 0.57230288 0.57230294 0.57230288 0.57230288 0.57230288 0.57230288 0.57230288 0.57230294 0.57230288 0.57230294 0.57230288 0.57230288 0.57230288 0.57230294 0.57230300 0.57230288 0.57230288 0.57230288 0.57230288 0.57230288 0.57230294 0.57230294 0.57230288 0.57230288 0.57230288 0.57230294 0.57230300 0.57230294 0.57230294 0.57230294 0.57230294 0.57230294 0.57230294 0.57230294 0.57230294 0.57230294 0.57230294 0.57230294 0.57230294 0.57230294 0.57230294 0.57230300 0.57230294 0.57230294 0.57230294 0.57230294 0.57230300 0.57230300 0.57230306 0.57230306 0.57230318 0.57230335 0.57230353 0.57230383 0.57230431 0.57230514 0.57230639 0.57230854 0.57231206 0.57231742 0.57232636 0.57234108 0.57236469 0.57240349 0.57246685 0.57256967 0.57273453 0.57299149 0.57337189 0.57388473 0.57446462 0.57490760 0.57489550 0.57423741 0.57320118 0.57243049 0.57236528 0.57285583 0.57335579 0.57339066 0.57294130 0.57244021 0.57231587 0.57257277 0.57285666 0.57285225 0.57258230 0.57233685 0.57233483 0.57250887 0.57262790 0.57256091 0.57239413 0.57230353 0.57235473 0.57245505 0.57248014 0.57240796 0.57232279 0.57230711 0.57235682 0.57240212 0.57239103 0.57234025 0.57230467 0.57231385 0.57234627 0.57236105 0.57234329 0.57231438 0.57230294 0.57231450 0.57233095 0.57233316 0.57232010 0.57230592 0.57230347 0.57231194 0.57231998 0.57231903 0.57231092 0.57230383 0.57230371 0.57230860 0.57231265 0.57231164 0.57230699 0.57230324 0.57230324 0.57230592 0.57230794 0.57230747 0.57230508 0.57230306 0.57230294 0.57230425 0.57230538 0.57230538 0.57230425 0.57230300 0.57230282 0.57230335 0.57230413 0.57230413 0.57230371 0.57230306 0.57230282 0.57230294 0.57230324 0.57230353 0.57230335 0.57230312 0.57230276 0.57230270 0.57230282 0.57230306 0.57230312 0.57230300 0.57230288 0.57230276 0.57230276 0.57230276 0.57230294 0.57230294 0.57230282 0.57230276 0.57230270 0.57230270 0.57230276 0.57230276 0.57230282 0.57230282 0.57230276 0.57230264 0.57230270 0.57230276 0.57230282
0.00607368 0.00605162 0.00603151 0.00601835 0.00601398 0.00601702 0.00602423 0.00603182 0.00603674 0.00603752 0.00603405 0.00602760 0.00601981 0.00601247 0.00600675 0.00600324 0.00600189 0.00600219 0.00600338 0.00600474 0.00600566 0.00600576 0.00600496 0.00600331 0.00600109 0.00599855 0.00599594 0.00599348 0.00599131 0.00598949 0.00598800 0.00598683 0.00598590 0.00598513 0.00598448 0.00598386 0.00598327 0.00598263 0.00598196 0.00598124 0.00598048 0.00597969 0.00597890 0.00597809 0.00597728 0.00597651 0.00597577 0.00597508 0.00597446 0.00597394 0.00597361 0.00597344 0.00597351 0.00597392 0.00597473 0.00597615 0.00597835 0.00598169 0.00598654 0.00599362 0.00600365 0.00601811 0.00603854 0.00606815 0.00611006 0.00617154 0.00625895 0.00638869 0.00657320 0.00684971 0.00723725 0.00781663 0.00859371 0.00972045 0.01107218 0.01284695 0.01443568 0.01595985 0.01610708 0.01525559 0.01270944 0.00981755 0.00729149 0.00605616 0.00622496 0.00733303 0.00862629 0.00929267 0.00912344 0.00813557 0.00698451 0.00615743 0.00595112 0.00628832 0.00685612 0.00732293 0.00742877 0.00719567 0.00672535 0.00626768 0.00598335 0.00594053 0.00609031 0.00631516 0.00649721 0.00654862 0.00647009 0.00629523 0.00610752 0.00596954 0.00591778 0.00594732 0.00602407 0.00610423 0.00615017 0.00614860 0.00610223 0.00603434 0.00596786 0.00592285 0.00590716 0.00591749 0.00594305 0.00597062 0.00598993 0.00599477 0.00598569 0.00596606 0.00594253 0.00592059 0.00590461 0.00589626 0.00589509 0.00589919 0.00590595 0.00591292 0.00591812 0.00592054 0.00591978 0.00591636 0.00591089 0.00590445 0.00589782 0.00589178 0.00588675 0.00588301 0.00588050 0.00587910 0.00587854 0.00587856 0.00587889 0.00587930 0.00587966 0.00587987 0.00587986 0.00587964 0.00587922 0.00587868 0.00587808 0.00587743 0.00587683 0.00587626 0.00587579 0.00587544 0.00587532 0.00587547 0.00587603 0.00587709 0.00587882 0.00588132 0.00588499 0.00589009 0.00589731 0.00590723 0.00592109 0.00593998 0.00596660 0.00600309 0.00605499 0.00612633 0.00622884 0.00636966 0.00657383 0.00685152 0.00725471 0.00778616 0.00854422 0.00946886 0.01070676 0.01195933 0.01336365 0.01413854 0.01444415 0.01339631 0.01165279 0.00927810 0.00726273 0.00606858 0.00591205 0.00656390 0.00753064 0.00833075 0.00853044 0.00817202 0.00736833 0.00654850 0.00598638 0.00583128 0.00602995 0.00640680 0.00676844 0.00694543 0.00690948 0.00666873 0.00635098 0.00605380 0.00586741 0.00581887 0.00588604 0.00601438 0.00614011 0.00621837 0.00622071 0.00615959 0.00605498 0.00594546 0.00585854 0.00581232 0.00580842 0.00583612 0.00587832 0.00591751 0.00594197 0.00594504 0.00592945 0.00590000 0.00586584 0.00583391 0.00580987 0.00579598 0.00579206 0.00579596 0.00580462 0.00581489 0.00582412 0.00583069 0.00583359 0.00583292 0.00582896 0.00582280 0.00581523 0.00580729 0.00579951 0.00579247 0.00578646 0.00578162 0.00577794 0.00577526 0.00577345 0.00577231 0.00577167 0.00577137 0.00577130 0.00577137 0.00577154 0.00577179
0.00060502 0.00060487 0.00060468 0.00060447 0.00060425 0.00060408 0.00060393 0.00060381 0.00060368 0.00060356 0.00060339 0.00060324 0.00060306 0.00060287 0.00060271 0.00060254 0.00060239 0.00060223 0.00060209 0.00060195 0.00060180 0.00060165 0.00060149 0.00060132 0.00060117 0.00060101 0.00060084 0.00060070 0.00060056 0.00060041 0.00060025 0.00060011 0.00059995 0.00059980 0.00059964 0.00059949 0.00059934 0.00059918 0.00059903 0.00059888 0.00059873 0.00059858 0.00059843 0.00059829 0.00059814 0.00059798 0.00059784 0.00059768 0.00059753 0.00059738 0.00059723 0.00059707 0.00059692 0.00059677 0.00059661 0.00059646 0.00059631 0.00059616 0.00059602 0.00059587 0.00059572 0.00059557 0.00059543 0.00059528 0.00059514 0.00059499 0.00059483 0.00059468 0.00059453 0.00059439 0.00059423 0.00059409 0.00059396 0.00059381 0.00059369 0.00059358 0.00059346 0.00059336 0.00059327 0.00059320 0.00059313 0.00059310 0.00059311 0.00059317 0.00059331 0.00059356 0.00059396 0.00059459 0.00059554 0.00059698 0.00059914 0.00060248 0.00060766 0.00061557 0.00062771 0.00064617 0.00067455 0.00071803 0.00078548 0.00088850 0.00104718 0.00128310 0.00163222 0.00210693 0.00272399 0.00337014 0.00390247 0.00395005 0.00338103 0.00225350 0.00114920 0.00060771 0.00078997 0.00138367 0.00187083 0.00189695 0.00144350 0.00087864 0.00059459 0.00071549 0.00103829 0.00124572 0.00117329 0.00089507 0.00064637 0.00059604 0.00072706 0.00088436 0.00092185 0.00081913 0.00066895 0.00058859 0.00061798 0.00070372 0.00075959 0.00073925 0.00066663 0.00060134 0.00058698 0.00062001 0.00066166 0.00067459 0.00065058 0.00061167 0.00058651 0.00058843 0.00060857 0.00062667 0.00062808 0.00061306 0.00059396 0.00058359 0.00058613 0.00059620 0.00060437 0.00060452 0.00059715 0.00058789 0.00058249 0.00058308 0.00058753 0.00059170 0.00059245 0.00058950 0.00058503 0.00058176 0.00058109 0.00058266 0.00058481 0.00058590 0.00058523 0.00058329 0.00058125 0.00058008 0.00058003 0.00058076 0.00058153 0.00058174 0.00058128 0.00058036 0.00057945 0.00057891 0.00057883 0.00057907 0.00057932 0.00057938 0.00057915 0.00057870 0.00057821 0.00057784 0.00057766 0.00057764 0.00057767 0.00057767 0.00057756 0.00057736 0.00057709 0.00057682 0.00057659 0.00057641 0.00057629 0.00057619 0.00057610 0.00057602 0.00057591 0.00057579 0.00057561 0.00057544 0.00057525 0.00057508 0.00057493 0.00057480 0.00057467 0.00057456 0.00057444 0.00057431 0.00057417 0.00057402 0.00057387 0.00057372 0.00057357 0.00057343 0.00057330 0.00057318 0.00057305 0.00057292 0.00057279 0.00057266 0.00057253 0.00057239 0.00057225 0.00057211 0.00057197 0.00057183 0.00057169 0.00057156 0.00057142 0.00057129 0.00057116 0.00057103 0.00057091 0.00057077 0.00057065 0.00057051 0.00057039 0.00057025 0.00057011 0.00056998 0.00056984 0.00056971 0.00056958 0.00056944 0.00056931 0.00056917 0.00056904 0.00056891 0.00056878 0.00056865 0.00056852 0.00056839 0.00056827 0.00056814 0.00056800 0.00056788 0.00056774 0.00056763
0.00881552 0.00881548 0.00881543 0.00881539 0.00881534 0.00881530 0.00881527 0.00881522 0.00881518 0.00881513 0.00881509 0.00881505 0.00881501 0.00881496 0.00881492 0.00881488 0.00881483 0.00881479 0.00881475 0.00881470 0.00881467 0.00881462 0.00881458 0.00881455 0.00881451 0.00881447 0.00881443 0.00881439 0.00881436 0.00881431 0.00881427 0.00881422 0.00881418 0.00881415 0.00881411 0.00881408 0.00881405 0.00881402 0.00881398 0.00881395 0.00881393 0.00881390 0.00881388 0.00881386 0.00881386 0.00881388 0.00881391 0.00881398 0.00881408 0.00881426 0.00881453 0.00881495 0.00881558 0.00881654 0.00881795 0.00882006 0.00882323 0.00882798 0.00883526 0.00884628 0.00886344 0.00888959 0.00893087 0.00899388 0.00909454 0.00924627 0.00948883 0.00983781 0.01037868 0.01106444 0.01201179 0.01283514 0.01355647 0.01327925 0.01230848 0.01060503 0.00925217 0.00881742 0.00931387 0.01017590 0.01063318 0.01042459 0.00964694 0.00897660 0.00883466 0.00918159 0.00961004 0.00969778 0.00941878 0.00900963 0.00881533 0.00892526 0.00916109 0.00928247 0.00917673 0.00896519 0.00882419 0.00884549 0.00896614 0.00905135 0.00902781 0.00892178 0.00883085 0.00881852 0.00887242 0.00892935 0.00893508 0.00889061 0.00883553 0.00881264 0.00883014 0.00886276 0.00887909 0.00886615 0.00883757 0.00881577 0.00881429 0.00882854 0.00884308 0.00884564 0.00883508 0.00882067 0.00881251 0.00881434 0.00882207 0.00882828 0.00882825 0.00882252 0.00881561 0.00881195 0.00881294 0.00881664 0.00881965 0.00881982 0.00881725 0.00881387 0.00881174 0.00881176 0.00881331 0.00881496 0.00881551 0.00881469 0.00881311 0.00881172 0.00881117 0.00881149 0.00881223 0.00881281 0.00881287 0.00881240 0.00881168 0.00881109 0.00881084 0.00881096 0.00881125 0.00881148 0.00881150 0.00881131 0.00881097 0.00881068 0.00881053 0.00881053 0.00881062 0.00881072 0.00881074 0.00881069 0.00881053 0.00881038 0.00881024 0.00881016 0.00881013 0.00881014 0.00881015 0.00881014 0.00881010 0.00881005 0.00880997 0.00880988 0.00880982 0.00880977 0.00880972 0.00880970 0.00880968 0.00880965 0.00880963 0.00880959 0.00880954 0.00880949 0.00880943 0.00880938 0.00880934 0.00880929 0.00880926 0.00880922 0.00880920 0.00880916 0.00880911 0.00880908 0.00880904 0.00880900 0.00880896 0.00880892 0.00880888 0.00880884 0.00880879 0.00880876 0.00880873 0.00880868 0.00880864 0.00880861 0.00880857 0.00880854 0.00880851 0.00880846 0.00880842 0.00880839 0.00880834 0.00880830 0.00880827 0.00880823 0.00880819 0.00880815 0.00880811 0.00880808 0.00880804 0.00880801 0.00880797 0.00880795 0.00880789 0.00880786 0.00880782 0.00880778 0.00880775 0.00880771 0.00880767 0.00880763 0.00880759 0.00880756 0.00880752 0.00880748 0.00880746 0.00880742 0.00880738 0.00880734 0.00880730 0.00880726 0.00880723 0.00880720 0.00880716 0.00880711 0.00880709 0.00880706 0.00880702 0.00880701 0.00880699 0.00880698 0.00880698 0.00880702 0.00880711 0.00880727 0.00880759 0.00880812 0.00880904 0.00881057 0.00881312 0.00881732
0.00938387 0.00937166 0.00935955 0.00934760 0.00933590 0.00932431 0.00931302 0.00930191 0.00929099 0.00928033 0.00926977 0.00925945 0.00924918 0.00923915 0.00922913 0.00921930 0.00920951 0.00919989 0.00919030 0.00918087 0.00917145 0.00916219 0.00915295 0.00914383 0.00913478 0.00912577 0.00911686 0.00910800 0.00909924 0.00909051 0.00908190 0.00907342 0.00906503 0.00905682 0.00904884 0.00904121 0.00903414 0.00902777 0.00902258 0.00901904 0.00901817 0.00902091 0.00902957 0.00904588 0.00907520 0.00911956 0.00918992 0.00928355 0.00941797 0.00956365 0.00973465 0.00983262 0.00986351 0.00970494 0.00943244 0.00908133 0.00878865 0.00863357 0.00862091 0.00869287 0.00879498 0.00887717 0.00896916 0.00917931 0.00938873 0.00961384 0.00952195 0.00929574 0.00890307 0.00845331 0.00810515 0.00803878 0.00813926 0.00823334 0.00835367 0.00851454 0.00863225 0.00851209 0.00832634 0.00813485 0.00793189 0.00776048 0.00772740 0.00777618 0.00780529 0.00785539 0.00796731 0.00809498 0.00813367 0.00815768 0.00812838 0.00801704 0.00782686 0.00767065 0.00755316 0.00746740 0.00744560 0.00748489 0.00753061 0.00755984 0.00758525 0.00757919 0.00753639 0.00747907 0.00742512 0.00736382 0.00731158 0.00728157 0.00726353 0.00725163 0.00725179 0.00725826 0.00726071 0.00726386 0.00726915 0.00727206 0.00726970 0.00726985 0.00726757 0.00726265 0.00725576 0.00725144 0.00724319 0.00723592 0.00722772 0.00722031 0.00720929 0.00720041 0.00718954 0.00717924 0.00716624 0.00715514 0.00714143 0.00712880 0.00711501 0.00710266 0.00708849 0.00707601 0.00706239 0.00704983 0.00703625 0.00702459 0.00701213 0.00700114 0.00699022 0.00698120 0.00697218 0.00696530 0.00695909 0.00695509 0.00695159 0.00695077 0.00695062 0.00695371 0.00695746 0.00696483 0.00697215 0.00698326 0.00699279 0.00700430 0.00701088 0.00701683 0.00701411 0.00700758 0.00698949 0.00696576 0.00693116 0.00689273 0.00684869 0.00680515 0.00676262 0.00672518 0.00669302 0.00666756 0.00664802 0.00663377 0.00662366 0.00661673 0.00661199 0.00660905 0.00660759 0.00660750 0.00660891 0.00661219 0.00661847 0.00662815 0.00664374 0.00666588 0.00669912 0.00674432 0.00680904 0.00689224 0.00700381 0.00713108 0.00727875 0.00740411 0.00749716 0.00748800 0.00738147 0.00715705 0.00688774 0.00663500 0.00646963 0.00641620 0.00645948 0.00655705 0.00665783 0.00672354 0.00672679 0.00667308 0.00657723 0.00647446 0.00639168 0.00634666 0.00634057 0.00636247 0.00639629 0.00642577 0.00644094 0.00643618 0.00641440 0.00638015 0.00634188 0.00630602 0.00627774 0.00625904 0.00624950 0.00624716 0.00624939 0.00625355 0.00625722 0.00625927 0.00625865 0.00625556 0.00625004 0.00624276 0.00623399 0.00622458 0.00621450 0.00620449 0.00619471 0.00618553 0.00617702 0.00616934 0.00616257 0.00615711 0.00615285 0.00615050 0.00615035 0.00615326 0.00615985 0.00617199 0.00619113 0.00622027 0.00626180 0.00632123 0.00640170 0.00651043 0.00664559 0.00680967 0.00697929 0.00713564 0.00721582 0.00719024 0.00701131 0.00672450
0.00040814 0.00041171 0.00041739 0.00042639 0.00044066 0.00046334 0.00049968 0.00055779 0.00065087 0.00079809 0.00102902 0.00137823 0.00188679 0.00255465 0.00331689 0.00391485 0.00400290 0.00327461 0.00197213 0.00079503 0.00040395 0.00083652 0.00155509 0.00190967 0.00160278 0.00092418 0.00044603 0.00048998 0.00087224 0.00115296 0.00106308 0.00071032 0.00043275 0.00044137 0.00064790 0.00080269 0.00075073 0.00055900 0.00041353 0.00042530 0.00053965 0.00061914 0.00058601 0.00048101 0.00040502 0.00041373 0.00047534 0.00051721 0.00049922 0.00044346 0.00040210 0.00040490 0.00043694 0.00046085 0.00045408 0.00042541 0.00040135 0.00039939 0.00041486 0.00042934 0.00042899 0.00041544 0.00040118 0.00039702 0.00040341 0.00041209 0.00041465 0.00040935 0.00040120 0.00039657 0.00039786 0.00040237 0.00040543 0.00040448 0.00040064 0.00039702 0.00039593 0.00039739 0.00039953 0.00040042 0.00039940 0.00039738 0.00039579 0.00039549 0.00039626 0.00039724 0.00039757 0.00039704 0.00039602 0.00039518 0.00039496 0.00039528 0.00039574 0.00039591 0.00039565 0.00039513 0.00039467 0.00039446 0.00039453 0.00039470 0.00039477 0.00039467 0.00039443 0.00039417 0.00039400 0.00039395 0.00039398 0.00039402 0.00039399 0.00039389 0.00039374 0.00039360 0.00039348 0.00039340 0.00039336 0.00039335 0.00039330 0.00039325 0.00039316 0.00039305 0.00039297 0.00039289 0.00039283 0.00039279 0.00039273 0.00039267 0.00039260 0.00039252 0.00039244 0.00039237 0.00039231 0.00039225 0.00039219 0.00039213 0.00039207 0.00039201 0.00039194 0.00039188 0.00039181 0.00039174 0.00039168 0.00039162 0.00039155 0.00039149 0.00039143 0.00039137 0.00039130 0.00039124 0.00039117 0.00039111 0.00039105 0.00039099 0.00039093 0.00039087 0.00039081 0.00039075 0.00039069 0.00039062 0.00039056 0.00039049 0.00039043 0.00039037 0.00039031 0.00039025 0.00039019 0.00039013 0.00039007 0.00039001 0.00038995 0.00038989 0.00038984 0.00038978 0.00038971 0.00038965 0.00038959 0.00038952 0.00038946 0.00038940 0.00038934 0.00038928 0.00038922 0.00038916 0.00038911 0.00038905 0.00038899 0.00038894 0.00038888 0.00038882 0.00038876 0.00038870 0.00038864 0.00038858 0.00038852 0.00038846 0.00038839 0.00038833 0.00038827 0.00038821 0.00038815 0.00038810 0.00038804 0.00038798 0.00038793 0.00038788 0.00038782 0.00038777 0.00038771 0.00038765 0.00038760 0.00038753 0.00038748 0.00038742 0.00038738 0.00038733 0.00038729 0.00038726 0.00038725 0.00038728 0.00038733 0.00038746 0.00038766 0.00038804 0.00038864 0.00038963 0.00039123 0.00039377 0.00039777 0.00040410 0.00041417 0.00043041 0.00045662 0.00049906 0.00056774 0.00067907 0.00085739 0.00114036 0.00157207 0.00219900 0.00300974 0.00388822 0.00447160 0.00431883 0.00319866 0.00162512 0.00053617 0.00050678 0.00126079 0.00199249 0.00203673 0.00136978 0.00061597 0.00039831 0.00075345 0.00119451 0.00124389 0.00087737 0.00047896 0.00040476 0.00063191 0.00085224 0.00082433 0.00059503 0.00040626 0.00041674 0.00056016 0.00065452
0.00973035 0.00972915 0.00972655 0.00972256 0.00971793 0.00971392 0.00971141 0.00971029 0.00970977 0.00970884 0.00970689 0.00970400 0.00970090 0.00969832 0.00969656 0.00969534 0.00969407 0.00969233 0.00969007 0.00968761 0.00968537 0.00968354 0.00968198 0.00968045 0.00967872 0.00967673 0.00967463 0.00967258 0.00967073 0.00966905 0.00966740 0.00966567 0.00966382 0.00966188 0.00965998 0.00965813 0.00965640 0.00965469 0.00965295 0.00965119 0.00964937 0.00964755 0.00964572 0.00964396 0.00964223 0.00964051 0.00963877 0.00963701 0.00963524 0.00963347 0.00963172 0.00963000 0.00962826 0.00962655 0.00962484 0.00962312 0.00962139 0.00961965 0.00961793 0.00961622 0.00961452 0.00961283 0.00961112 0.00960943 0.00960775 0.00960604 0.00960436 0.00960265 0.00960098 0.00959931 0.00959764 0.00959596 0.00959428 0.00959262 0.00959097 0.00958931 0.00958765 0.00958598 0.00958434 0.00958270 0.00958106 0.00957941 0.00957776 0.00957614 0.00957451 0.00957288 0.00957124 0.00956963 0.00956801 0.00956640 0.00956477 0.00956315 0.00956154 0.00955996 0.00955835 0.00955675 0.00955515 0.00955355 0.00955196 0.00955039 0.00954878 0.00954721 0.00954563 0.00954406 0.00954248 0.00954090 0.00953934 0.00953777 0.00953622 0.00953466 0.00953309 0.00953155 0.00952999 0.00952845 0.00952690 0.00952535 0.00952381 0.00952229 0.00952075 0.00951921 0.00951768 0.00951616 0.00951464 0.00951311 0.00951160 0.00951008 0.00950856 0.00950706 0.00950555 0.00950405 0.00950255 0.00950105 0.00949955 0.00949806 0.00949657 0.00949507 0.00949359 0.00949212 0.00949064 0.00948916 0.00948768 0.00948621 0.00948473 0.00948329 0.00948181 0.00948036 0.00947890 0.00947747 0.00947603 0.00947459 0.00947317 0.00947177 0.00947040 0.00946906 0.00946777 0.00946656 0.00946548 0.00946456 0.00946390 0.00946355 0.00946360 0.00946405 0.00946470 0.00946511 0.00946448 0.00946217 0.00945802 0.00945302 0.00944864 0.00944603 0.00944530 0.00944558 0.00944568 0.00944466 0.00944238 0.00943942 0.00943673 0.00943491 0.00943399 0.00943343 0.00943263 0.00943123 0.00942928 0.00942719 0.00942537 0.00942400 0.00942296 0.00942196 0.00942076 0.00941926 0.00941760 0.00941596 0.00941447 0.00941321 0.00941203 0.00941083 0.00940954 0.00940811 0.00940663 0.00940517 0.00940381 0.00940252 0.00940126 0.00940001 0.00939871 0.00939735 0.00939597 0.00939461 0.00939326 0.00939197 0.00939069 0.00938942 0.00938814 0.00938684 0.00938552 0.00938419 0.00938288 0.00938159 0.00938031 0.00937905 0.00937777 0.00937649 0.00937522 0.00937392 0.00937264 0.00937137 0.00937009 0.00936883 0.00936757 0.00936631 0.00936505 0.00936379 0.00936254 0.00936128 0.00936002 0.00935877 0.00935752 0.00935628 0.00935504 0.00935379 0.00935256 0.00935132 0.00935009 0.00934885 0.00934763 0.00934639 0.00934517 0.00934395 0.00934272 0.00934150 0.00934028 0.00933907 0.00933786 0.00933664 0.00933543 0.00933423 0.00933302 0.00933181 0.00933061 0.00932941 0.00932822 0.00932702 0.00932583 0.00932463 0.00932344 0.00932224
0.57230324 0.57230318 0.57230335 0.57230347 0.57230341 0.57230347 0.57230335 0.57230330 0.57230318 0.57230330 0.57230324 0.57230341 0.57230330 0.57230330 0.57230330 0.57230318 0.57230318 0.57230318 0.57230324 0.57230330 0.57230335 0.57230330 0.57230330 0.57230318 0.57230318 0.57230318 0.57230318 0.57230318 0.57230324 0.57230324 0.57230330 0.57230324 0.57230318 0.57230318 0.57230324 0.57230318 0.57230330 0.57230324 0.57230318 0.57230318 0.57230318 0.57230324 0.57230318 0.57230318 0.57230318 0.57230318 0.57230318 0.57230318 0.57230318 0.57230324 0.57230318 0.57230330 0.57230324 0.57230324 0.57230318 0.57230318 0.57230318 0.57230324 0.57230318 0.57230318 0.57230318 0.57230318 0.57230318 0.57230318 0.57230318 0.57230318 0.57230324 0.57230312 0.57230318 0.57230318 0.57230318 0.57230318 0.57230324 0.57230318 0.57230318 0.57230324 0.57230312 0.57230318 0.57230318 0.57230318 0.57230318 0.57230318 0.57230318 0.57230318 0.57230318 0.57230324 0.57230318 0.57230318 0.57230318 0.57230318 0.57230318 0.57230318 0.57230318 0.57230318 0.57230318 0.57230318 0.57230318 0.57230318 0.57230318 0.57230318 0.57230318 0.57230312 0.57230324 0.57230324 0.57230324 0.57230324 0.57230330 0.57230335 0.57230341 0.57230359 0.57230371 0.57230389 0.57230431 0.57230479 0.57230550 0.57230687 0.57230896 0.57231224 0.57231760 0.57232612 0.57234007 0.57236242 0.57239938 0.57245988 0.57255805 0.57271528 0.57296139 0.57332784 0.57382703 0.57440352 0.57486951 0.57491195 0.57431418 0.57329524 0.57247752 0.57233942 0.57278967 0.57330918 0.57340211 0.57299501 0.57248074 0.57230669 0.57252991 0.57282633 0.57286334 0.57261837 0.57235712 0.57232034 0.57248014 0.57261699 0.57257640 0.57241571 0.57230788 0.57233995 0.57243979 0.57248020 0.57242084 0.57233268 0.57230425 0.57234633 0.57239556 0.57239461 0.57234842 0.57230818 0.57230920 0.57233852 0.57235825 0.57234716 0.57231933 0.57230341 0.57231092 0.57232779 0.57233423 0.57232434 0.57230926 0.57230312 0.57230932 0.57231843 0.57232046 0.57231396 0.57230574 0.57230318 0.57230687 0.57231164 0.57231241 0.57230878 0.57230461 0.57230312 0.57230496 0.57230759 0.57230824 0.57230645 0.57230413 0.57230312 0.57230389 0.57230532 0.57230604 0.57230520 0.57230401 0.57230324 0.57230335 0.57230413 0.57230455 0.57230437 0.57230371 0.57230318 0.57230318 0.57230347 0.57230371 0.57230377 0.57230359 0.57230324 0.57230312 0.57230318 0.57230330 0.57230341 0.57230341 0.57230330 0.57230324 0.57230312 0.57230312 0.57230318 0.57230324 0.57230324 0.57230318 0.57230324 0.57230312 0.57230312 0.57230312 0.57230324 0.57230318 0.57230318 0.57230324 0.57230312 0.57230312 0.57230312 0.57230312 0.57230312 0.57230312 0.57230312 0.57230312 0.57230312 0.57230312 0.57230312 0.57230312 0.57230312 0.57230312 0.57230312 0.57230312 0.57230312 0.57230312 0.57230312 0.57230312 0.57230312 0.57230312 0.57230312 0.57230312 0.57230306 0.57230312 0.57230312 0.57230312 0.57230312 0.57230312 0.57230312 0.57230312 0.57230312
