5984.15673828 5835.99121094 5706.91308594 5593.95849609 5494.21728516 5405.08593750 5324.36669922 5250.28759766 5181.45068359 5116.78271484 5055.46435547 4996.87402344 4940.54492188 4886.12548828 4833.34960938 4782.01220703 4731.95996094 4683.07421875 4635.25878906 4588.44335938 4542.56445312 4497.57568359 4453.43798828 4410.11230469 4367.57470703 4325.79736328 4284.75732422 4244.43457031 4204.80908203 4165.86035156 4127.57812500 4089.94262695 4052.94091797 4016.55957031 3980.78125000 3945.59521484 3910.98632812 3876.94531250 3843.46093750 3810.51757812 3778.10839844 3746.21801758 3714.83935547 3683.96093750 3653.57128906 3623.66210938 3594.22412109 3565.24755859 3536.72143555 3508.63989258 3480.99169922 3453.77075195 3426.96875000 3400.57470703 3374.58422852 3348.98901367 3323.77954102 3298.95239258 3274.49755859 3250.40820312 3226.67944336 3203.30346680 3180.27587891 3157.58789062 3135.23461914 3113.20996094 3091.50952148 3070.12646484 3049.05468750 3028.29003906 3007.82763672 2987.66064453 2967.78320312 2948.19458008 2928.88598633 2909.85571289 2891.09643555 2872.60595703 2854.37841797 2836.40917969 2818.69482422 2801.23144531 2784.01611328 2767.04003906 2750.30468750 2733.80322266 2717.53222656 2701.48901367 2685.67016602 2670.07006836 2654.68627930 2639.51586914 2624.55419922 2609.79931641 2595.24707031 2580.89453125 2566.73828125 2552.77734375 2539.00341797 2525.41918945 2512.01928711 2498.79858398 2485.75756836 2472.89306641 2460.20141602 2447.67944336 2435.32788086 2423.13745117 2411.11303711 2399.24609375 2387.53710938 2375.98364258 2364.58227539 2353.33154297 2342.23046875 2331.27246094 2320.45849609 2309.78808594 2299.25341797 2288.85888672 2278.59643555 2268.46777344 2258.47021484 2248.60131836 2238.85913086 2229.24267578 2219.74804688 2210.37402344 2201.11987305 2191.98315430 2182.96191406 2174.05371094 2165.25830078 2156.57299805 2147.99682617 2139.52661133 2131.16235352 2122.90185547 2114.74316406 2106.68530273 2098.72656250 2090.86499023 2083.09985352 2075.42895508 2067.85107422 2060.36523438 2052.96948242 2045.66259766 2038.44335938 2031.31042480 2024.26196289 2017.29736328 2010.41503906 2003.61376953 1996.89233398 1990.24938965 1983.68383789 1977.19433594 1970.78002930 1964.43969727 1958.17187500 1951.97583008 1945.85009766 1939.79418945 1933.80639648 1927.88623047 1922.03198242 1916.24328613 1910.51879883 1904.85766602 1899.25878906 1893.72143555 1888.24450684 1882.82714844 1877.46826172 1872.16699219 1866.92285156 1861.73461914 1856.60131836 1851.52246094 1846.49707031 1841.52416992 1836.60302734 1831.73303223 1826.91333008 1822.14306641 1817.42163086 1812.74816895 1808.12182617 1803.54223633 1799.00830078 1794.51928711 1790.07519531 1785.67456055 1781.31713867 1777.00195312 1772.72900391 1768.49682617 1764.30517578 1760.15380859 1756.04150391 1751.96813965 1747.93261719 1743.93505859 1739.97412109 1736.04956055 1732.16113281 1728.30810547 1724.48986816 1720.70581055 1716.95556641 1713.23852539 1709.55444336 1705.90258789 1702.28247070 1698.69335938 1695.13537598 1691.60791016 1688.11010742 1684.64208984 1681.20288086 1677.79223633 1674.40991211 1671.05517578 1667.72802734 1664.42785645 1661.15405273 1657.90625000 1654.68481445 1651.48828125 1648.31701660 1645.17016602 1642.04760742 1638.94921875 1635.87426758 1632.82250977 1629.79370117 1626.78747559 1623.80358887 1620.84143066 1617.90100098 1614.98193359 1612.08374023 1609.20617676 1606.34912109 1603.51208496 1600.69470215 1597.89721680 1595.11865234 1592.35913086 1589.61840820 1586.89599609 1584.19189453 1581.50561523 1578.83728027 1576.18603516 1573.55200195 1570.93505859 1568.33471680 1565.75073242 1563.18334961 1560.63159180 1558.09582520 1555.57592773 1553.07104492
6472.97949219 6296.03955078 6140.18896484 6003.54638672 5883.50000000 5777.22509766 5682.04345703 5595.63232422 5516.10058594 5441.96777344 5372.10986328 5305.68359375 5242.06347656 5180.78662109 5121.50683594 5063.96582031 5007.96484375 4953.35156250 4900.00830078 4847.84033203 4796.76904297 4746.73046875 4697.67626953 4649.56054688 4602.34570312 4555.99902344 4510.48974609 4465.79541016 4421.88867188 4378.75292969 4336.36083984 4294.69970703 4253.75048828 4213.49707031 4173.92089844 4135.00585938 4096.74169922 4059.11059570 4022.10083008 3985.69799805 3949.89013672 3914.66406250 3880.00830078 3845.90795898 3812.35302734 3779.33569336 3746.83935547 3714.85546875 3683.37695312 3652.38793945 3621.88525391 3591.85449219 3562.28271484 3533.17285156 3504.50073242 3476.27294922 3448.46826172 3421.08691406 3394.12304688 3367.55712891 3341.39013672 3315.61499023 3290.22094727 3265.20336914 3240.55712891 3216.27099609 3192.34057617 3168.76098633 3145.52587891 3122.62744141 3100.06079102 3077.81884766 3055.89892578 3034.29467773 3012.99951172 2992.00732422 2971.31616211 2950.91992188 2930.81127930 2910.98974609 2891.44799805 2872.18164062 2853.18701172 2834.45776367 2815.99291992 2797.78564453 2779.83227539 2762.12988281 2744.67456055 2727.46166992 2710.48706055 2693.74804688 2677.24023438 2660.96069336 2644.90673828 2629.07153320 2613.45605469 2598.05273438 2582.86254883 2567.87890625 2553.10058594 2538.52441406 2524.14697266 2509.96435547 2495.97509766 2482.17553711 2468.56298828 2455.13525391 2441.88940430 2428.82177734 2415.93041992 2403.21313477 2390.66625977 2378.28833008 2366.07641602 2354.02807617 2342.14160156 2330.41381836 2318.84204102 2307.42480469 2296.15966797 2285.04418945 2274.07617188 2263.25463867 2252.57519531 2242.03759766 2231.63891602 2221.37719727 2211.25146484 2201.25781250 2191.39550781 2181.66357422 2172.05810547 2162.57861328 2153.22265625 2143.98876953 2134.87451172 2125.87915039 2117.00073242 2108.23657227 2099.58593750 2091.04711914 2082.61816406 2074.29760742 2066.08374023 2057.97534180 2049.97070312 2042.06787109 2034.26586914 2026.56323242 2018.95800781 2011.44958496 2004.03540039 1996.71545410 1989.48706055 1982.34948730 1975.30163574 1968.34179688 1961.46850586 1954.68103027 1947.97790527 1941.35742188 1934.81909180 1928.36120605 1921.98242188 1915.68212891 1909.45874023 1903.31127930 1897.23864746 1891.23974609 1885.31323242 1879.45837402 1873.67370605 1867.95825195 1862.31127930 1856.73156738 1851.21826172 1845.77001953 1840.38610840 1835.06555176 1829.80725098 1824.61083984 1819.47436523 1814.39770508 1809.37976074 1804.41943359 1799.51623535 1794.66870117 1789.87670898 1785.13891602 1780.45495605 1775.82324219 1771.24389648 1766.71533203 1762.23706055 1757.80859375 1753.42871094 1749.09667969 1744.81201172 1740.57397461 1736.38183594 1732.23474121 1728.13195801 1724.07299805 1720.05712891 1716.08349609 1712.15173340 1708.26123047 1704.41064453 1700.60009766 1696.82873535 1693.09570312 1689.40087891 1685.74328613 1682.12231445 1678.53759766 1674.98876953 1671.47448730 1667.99462891 1664.54882812 1661.13647461 1657.75683594 1654.40966797 1651.09399414 1647.80993652 1644.55627441 1641.33325195 1638.13952637 1634.97558594 1631.84020996 1628.73339844 1625.65429688 1622.60278320 1619.57800293 1616.58007812 1613.60815430 1610.66186523 1607.74096680 1604.84484863 1601.97338867 1599.12585449 1596.30200195 1593.50146484 1590.72387695 1587.96875000 1585.23559570 1582.52429199 1579.83496094 1577.16613770 1574.51818848 1571.89074707 1569.28295898 1566.69543457 1564.12719727 1561.57775879 1559.04760742 1556.53588867 1554.04187012 1551.56604004 1549.10791016 1546.66699219 1544.24291992 1541.83593750 1539.44531250 1537.07092285
6339.54882812 6177.81298828 6036.06103516 5911.70849609 5801.90478516 5703.92773438 5615.38476562 5534.29785156 5459.09375000 5388.54589844 5321.72509766 5257.92968750 5196.63183594 5137.43798828 5080.04980469 5024.24511719 4969.85253906 4916.74121094 4864.80761719 4813.97070312 4764.16601562 4715.33886719 4667.44433594 4620.44531250 4574.30859375 4529.00439453 4484.50781250 4440.79541016 4397.84619141 4355.64013672 4314.15917969 4273.38476562 4233.30175781 4193.89355469 4155.14501953 4117.04101562 4079.56909180 4042.71362305 4006.46240234 3970.80273438 3935.72216797 3901.20703125 3867.24755859 3833.83081055 3800.94653320 3768.58300781 3736.72998047 3705.37719727 3674.51440430 3644.13256836 3614.21972656 3584.76977539 3555.77050781 3527.21557617 3499.09521484 3471.40185547 3444.12548828 3417.26074219 3390.79711914 3364.72998047 3339.04980469 3313.75000000 3288.82421875 3264.26464844 3240.06567383 3216.21972656 3192.72119141 3169.56396484 3146.74243164 3124.24951172 3102.08056641 3080.22851562 3058.69042969 3037.45922852 3016.52978516 2995.89697266 2975.55688477 2955.50341797 2935.73266602 2916.23950195 2897.01928711 2878.06787109 2859.38061523 2840.95410156 2822.78295898 2804.86376953 2787.19238281 2769.76464844 2752.57739258 2735.62646484 2718.90820312 2702.41845703 2686.15429688 2670.11181641 2654.28808594 2638.67944336 2623.28247070 2608.09423828 2593.11132812 2578.33056641 2563.74951172 2549.36376953 2535.17187500 2521.17041016 2507.35595703 2493.72631836 2480.27832031 2467.00976562 2453.91748047 2440.99926758 2428.25195312 2415.67358398 2403.26098633 2391.01269531 2378.92504883 2366.99707031 2355.22509766 2343.60742188 2332.14160156 2320.82592773 2309.65747070 2298.63427734 2287.75463867 2277.01586914 2266.41601562 2255.95361328 2245.62573242 2235.43090820 2225.36718750 2215.43261719 2205.62548828 2195.94311523 2186.38476562 2176.94775391 2167.63134766 2158.43212891 2149.35034180 2140.38281250 2131.52807617 2122.78515625 2114.15185547 2105.62670898 2097.20800781 2088.89453125 2080.68432617 2072.57641602 2064.56860352 2056.65991211 2048.84863281 2041.13378906 2033.51318359 2025.98608398 2018.55102539 2011.20654297 2003.95104980 1996.78369141 1989.70263672 1982.70739746 1975.79614258 1968.96777344 1962.22094727 1955.55444336 1948.96740723 1942.45825195 1936.02612305 1929.66992188 1923.38830566 1917.18005371 1911.04443359 1904.98034668 1898.98657227 1893.06213379 1887.20581055 1881.41687012 1875.69421387 1870.03674316 1864.44360352 1858.91394043 1853.44653320 1848.04077148 1842.69580078 1837.41003418 1832.18310547 1827.01416016 1821.90222168 1816.84680176 1811.84631348 1806.90039062 1802.00830078 1797.16906738 1792.38183594 1787.64599609 1782.96081543 1778.32519531 1773.73852539 1769.20031738 1764.70971680 1760.26623535 1755.86840820 1751.51623535 1747.20849609 1742.94506836 1738.72521973 1734.54797363 1730.41284180 1726.31909180 1722.26623535 1718.25341797 1714.28039551 1710.34643555 1706.45068359 1702.59277344 1698.77221680 1694.98803711 1691.24023438 1687.52783203 1683.85058594 1680.20776367 1676.59838867 1673.02294922 1669.48022461 1665.96997070 1662.49157715 1659.04467773 1655.62841797 1652.24291992 1648.88720703 1645.56079102 1642.26367188 1638.99523926 1635.75488281 1632.54223633 1629.35717773 1626.19848633 1623.06640625 1619.96057129 1616.88037109 1613.82519531 1610.79492188 1607.78906250 1604.80761719 1601.84948730 1598.91503906 1596.00341797 1593.11462402 1590.24792480 1587.40319824 1584.57995605 1581.77832031 1578.99743652 1576.23718262 1573.49743652 1570.77746582 1568.07751465 1565.39660645 1562.73498535 1560.09204102 1557.46777344 1554.86181641 1552.27368164 1549.70312500 1547.15014648 1544.61425781 1542.09545898 1539.59326172
6435.80712891 6281.48779297 6145.08300781 6024.01904297 5915.68212891 5817.71240234 5728.12597656 5645.32031250 5568.03076172 5495.26562500 5426.25048828 5360.37841797 5297.17285156 5236.25537109 5177.33203125 5120.16455078 5064.56250000 5010.37744141 4957.48535156 4905.78662109 4855.20166016 4805.66259766 4757.11181641 4709.50585938 4662.79785156 4616.95996094 4571.95703125 4527.76171875 4484.35205078 4441.70410156 4399.79492188 4358.61083984 4318.12695312 4278.33154297 4239.20654297 4200.73681641 4162.90478516 4125.70019531 4089.10644531 4053.11279297 4017.70288086 3982.86914062 3948.59252930 3914.86572266 3881.67993164 3849.01416016 3816.86718750 3785.22729492 3754.07714844 3723.41674805 3693.22607422 3663.50292969 3634.23632812 3605.41552734 3577.03393555 3549.08374023 3521.54956055 3494.43139648 3467.72290039 3441.40576172 3415.47973633 3389.93920898 3364.77221680 3339.97802734 3315.54150391 3291.46289062 3267.73388672 3244.34692383 3221.29711914 3198.57763672 3176.18457031 3154.11108398 3132.35131836 3110.90087891 3089.75268555 3068.90380859 3048.34814453 3028.08105469 3008.09765625 2988.39184570 2968.96118164 2949.80078125 2930.90576172 2912.27124023 2893.89453125 2875.77050781 2857.89453125 2840.26391602 2822.87548828 2805.72241211 2788.80346680 2772.11499023 2755.65185547 2739.41162109 2723.39086914 2707.58471680 2691.99243164 2676.60888672 2661.43212891 2646.45800781 2631.68359375 2617.10595703 2602.72216797 2588.52978516 2574.52514648 2560.70458984 2547.06787109 2533.61035156 2520.32983398 2507.22363281 2494.28930664 2481.52441406 2468.92578125 2456.49121094 2444.21875000 2432.10546875 2420.14916992 2408.34765625 2396.69824219 2385.19897461 2373.84838867 2362.64306641 2351.58178711 2340.66137695 2329.88012695 2319.23681641 2308.72875977 2298.35424805 2288.11083984 2277.99682617 2268.01049805 2258.15039062 2248.41381836 2238.79907227 2229.30419922 2219.92871094 2210.66943359 2201.52587891 2192.49511719 2183.57617188 2174.76684570 2166.06689453 2157.47314453 2148.98510742 2140.60058594 2132.31835938 2124.13720703 2116.05517578 2108.07104492 2100.18310547 2092.39062500 2084.69116211 2077.08447266 2069.56835938 2062.14184570 2054.80371094 2047.55249023 2040.38696289 2033.30603027 2026.30810547 2019.39208984 2012.55700684 2005.80151367 1999.12426758 1992.52441406 1986.00073242 1979.55200195 1973.17749023 1966.87548828 1960.64550781 1954.48620605 1948.39648438 1942.37548828 1936.42236328 1930.53564453 1924.71484375 1918.95861816 1913.26611328 1907.63659668 1902.06884766 1896.56201172 1891.11547852 1885.72827148 1880.39929199 1875.12780762 1869.91296387 1864.75390625 1859.65002441 1854.60021973 1849.60400391 1844.66015625 1839.76831055 1834.92724609 1830.13671875 1825.39562988 1820.70349121 1816.05944824 1811.46289062 1806.91308594 1802.40893555 1797.95043945 1793.53674316 1789.16674805 1784.84033203 1780.55664062 1776.31469727 1772.11486816 1767.95556641 1763.83654785 1759.75708008 1755.71667480 1751.71472168 1747.75097656 1743.82458496 1739.93481445 1736.08154297 1732.26354980 1728.48120117 1724.73327637 1721.01965332 1717.33984375 1713.69274902 1710.07861328 1706.49694824 1702.94653320 1699.42749023 1695.93920898 1692.48107910 1689.05322266 1685.65429688 1682.28479004 1678.94372559 1675.63061523 1672.34521484 1669.08740234 1665.85632324 1662.65185547 1659.47326660 1656.32055664 1653.19311523 1650.09057617 1647.01293945 1643.95910645 1640.92932129 1637.92309570 1634.93994141 1631.97949219 1629.04174805 1626.12622070 1623.23242188 1620.36010742 1617.50891113 1614.67846680 1611.86877441 1609.07946777 1606.30981445 1603.55993652 1600.82971191 1598.11816406 1595.42578125 1592.75170898 1590.09594727 1587.45837402 1584.83837891 1582.23571777
6355.33154297 6189.29785156 6043.98388672 5916.85986328 5805.05517578 5705.77685547 5616.54003906 5535.27197266 5460.30712891 5390.34960938 5324.40527344 5261.71630859 5201.70849609 5143.94433594 5088.09570312 5033.90869141 4981.18847656 4929.78564453 4879.58154297 4830.48437500 4782.41845703 4735.32519531 4689.15136719 4643.85693359 4599.40722656 4555.77099609 4512.92187500 4470.83056641 4429.48046875 4388.85107422 4348.92041016 4309.67236328 4271.09082031 4233.15917969 4195.86376953 4159.18847656 4123.11865234 4087.64355469 4052.74780273 4018.41870117 3984.64257812 3951.41015625 3918.70996094 3886.53344727 3854.86083984 3823.68945312 3793.00463867 3762.79858398 3733.05810547 3703.77832031 3674.94848633 3646.55761719 3618.59936523 3591.06274414 3563.94140625 3537.22558594 3510.90917969 3484.98339844 3459.44165039 3434.27343750 3409.47656250 3385.03906250 3360.95849609 3337.22607422 3313.83569336 3290.78100586 3268.05590820 3245.65478516 3223.57226562 3201.80126953 3180.33789062 3159.17602539 3138.30932617 3117.73461914 3097.44531250 3077.43701172 3057.70556641 3038.24536133 3019.05200195 3000.12158203 2981.44873047 2963.03027344 2944.86083984 2926.93750000 2909.25561523 2891.81103516 2874.60009766 2857.61914062 2840.86425781 2824.33251953 2808.01928711 2791.92163086 2776.03613281 2760.35937500 2744.88818359 2729.61889648 2714.54882812 2699.67480469 2684.99340820 2670.50219727 2656.19775391 2642.07763672 2628.13818359 2614.37792969 2600.79272461 2587.38085938 2574.13916016 2561.06542969 2548.15673828 2535.41088867 2522.82543945 2510.39746094 2498.12524414 2486.00585938 2474.03759766 2462.21777344 2450.54394531 2439.01440430 2427.62695312 2416.37939453 2405.26953125 2394.29541016 2383.45507812 2372.74633789 2362.16748047 2351.71630859 2341.39135742 2331.19042969 2321.11157227 2311.15332031 2301.31396484 2291.59106445 2281.98388672 2272.48974609 2263.10791016 2253.83642578 2244.67358398 2235.61767578 2226.66699219 2217.82055664 2209.07666016 2200.43359375 2191.89013672 2183.44458008 2175.09570312 2166.84204102 2158.68237305 2150.61523438 2142.63891602 2134.75268555 2126.95507812 2119.24487305 2111.62011719 2104.08056641 2096.62475586 2089.25097656 2081.95898438 2074.74633789 2067.61279297 2060.55712891 2053.57812500 2046.67456055 2039.84570312 2033.09008789 2026.40673828 2019.79479980 2013.25341797 2006.78137207 2000.37756348 1994.04113770 1987.77087402 1981.56689453 1975.42675781 1969.35058594 1963.33691406 1957.38549805 1951.49499512 1945.66479492 1939.89343262 1934.18103027 1928.52612305 1922.92785645 1917.38586426 1911.89904785 1906.46655273 1901.08825684 1895.76245117 1890.48925781 1885.26733398 1880.09619141 1874.97521973 1869.90368652 1864.88073730 1859.90576172 1854.97827148 1850.09741211 1845.26257324 1840.47290039 1835.72814941 1831.02746582 1826.37036133 1821.75610352 1817.18395996 1812.65380859 1808.16430664 1803.71582031 1799.30688477 1794.93762207 1790.60693359 1786.31494141 1782.06005859 1777.84252930 1773.66162109 1769.51672363 1765.40722656 1761.33276367 1757.29284668 1753.28662109 1749.31372070 1745.37329102 1741.46533203 1737.58911133 1733.74340820 1729.92822266 1726.14282227 1722.38647461 1718.65820312 1714.95715332 1711.28234863 1707.63305664 1704.00732422 1700.40356445 1696.82006836 1693.25366211 1689.70019531 1686.15466309 1682.60864258 1679.04833984 1675.45214844 1671.77978516 1667.95251465 1663.79980469 1658.90966797 1652.17541504 1640.33850098 1611.55017090 1506.84924316 1460.16870117 1372.41040039 1409.37365723 1379.15710449 1376.61657715 1365.01281738 1359.19201660 1364.94934082 1337.15710449 1355.76110840 1326.13793945 1334.54223633 1323.28723145 1312.71496582 1313.75390625 1299.38208008 1301.96289062 1285.37841797
6616.14257812 6453.87158203 6310.15820312 6182.81640625 6069.35937500 5967.36181641 5874.68603516 5789.52880859 5710.43994141 5636.27148438 5566.12158203 5499.28613281 5435.21484375 5373.47656250 5313.73144531 5255.71191406 5199.21240234 5144.06689453 5090.15527344 5037.37744141 4985.66015625 4934.94628906 4885.19091797 4836.35693359 4788.41601562 4741.33837891 4695.10449219 4649.69335938 4605.08007812 4561.24755859 4518.17773438 4475.85107422 4434.25195312 4393.36035156 4353.15869141 4313.63476562 4274.77099609 4236.55273438 4198.96826172 4161.99609375 4125.62890625 4089.85302734 4054.65429688 4020.02319336 3985.94091797 3952.40332031 3919.39404297 3886.90429688 3854.92089844 3823.43798828 3792.44384766 3761.92504883 3731.87744141 3702.28564453 3673.14672852 3644.44921875 3616.18261719 3588.34033203 3560.91210938 3533.89404297 3507.27758789 3481.05419922 3455.21557617 3429.75292969 3404.66528320 3379.93847656 3355.57299805 3331.55712891 3307.88891602 3284.55859375 3261.56225586 3238.89257812 3216.54443359 3194.51416016 3172.79272461 3151.37744141 3130.26318359 3109.44335938 3088.91430664 3068.67065430 3048.70825195 3029.02148438 3009.60717773 2990.45947266 2971.57495117 2952.94897461 2934.57763672 2916.45751953 2898.58300781 2880.95166016 2863.55883789 2846.40161133 2829.47558594 2812.77709961 2796.30322266 2780.05029297 2764.01513672 2748.19360352 2732.58300781 2717.18017578 2701.98168945 2686.98486328 2672.18627930 2657.58300781 2643.17211914 2628.95117188 2614.91699219 2601.06665039 2587.39746094 2573.90722656 2560.59228516 2547.45043945 2534.47998047 2521.67749023 2509.04052734 2496.56689453 2484.25390625 2472.10009766 2460.10205078 2448.25781250 2436.56542969 2425.02246094 2413.62670898 2402.37622070 2391.26879883 2380.30224609 2369.47436523 2358.78393555 2348.22778320 2337.80468750 2327.51293945 2317.34985352 2307.31445312 2297.40380859 2287.61718750 2277.95214844 2268.40722656 2258.98071289 2249.67041016 2240.47558594 2231.39355469 2222.42285156 2213.56274414 2204.81079102 2196.16577148 2187.62597656 2179.19018555 2170.85644531 2162.62353516 2154.49023438 2146.45434570 2138.51538086 2130.67138672 2122.92138672 2115.26367188 2107.69677734 2100.21972656 2092.83154297 2085.53027344 2078.31469727 2071.18408203 2064.13671875 2057.17187500 2050.28784180 2043.48413086 2036.75891113 2030.11145020 2023.54028320 2017.04479980 2010.62329102 2004.27539062 1997.99951172 1991.79479980 1985.66015625 1979.59448242 1973.59729004 1967.66699219 1961.80285645 1956.00390625 1950.26953125 1944.59814453 1938.98950195 1933.44189453 1927.95507812 1922.52832031 1917.16040039 1911.85034180 1906.59753418 1901.40112305 1896.26000977 1891.17431641 1886.14221191 1881.16308594 1876.23657227 1871.36206055 1866.53808594 1861.76440430 1857.04016113 1852.36474609 1847.73730469 1843.15722656 1838.62377930 1834.13623047 1829.69409180 1825.29663086 1820.94311523 1816.63293457 1812.36572266 1808.14013672 1803.95654297 1799.81359863 1795.71130371 1791.64831543 1787.62475586 1783.63964844 1779.69262695 1775.78320312 1771.91064453 1768.07434082 1764.27368164 1760.50891113 1756.77856445 1753.08251953 1749.42041016 1745.79150391 1742.19580078 1738.63208008 1735.10009766 1731.59985352 1728.13061523 1724.69140625 1721.28247070 1717.90307617 1714.55297852 1711.23168945 1707.93847656 1704.67321777 1701.43554688 1698.22485352 1695.04064941 1691.88305664 1688.75122070 1685.64465332 1682.56347656 1679.50695801 1676.47485352 1673.46667480 1670.48193359 1667.52075195 1664.58239746 1661.66650391 1658.77282715 1655.90136719 1653.05126953 1650.22229004 1647.41406250 1644.62658691 1641.85913086 1639.11181641 1636.38415527 1633.67541504 1630.98583984 1628.31481934 1625.66210938 1623.02722168
6544.05810547 6387.36621094 6249.83740234 6129.00683594 6022.10449219 5926.44677734 5839.67236328 5759.83886719 5685.41845703 5615.24414062 5548.44433594 5484.37353516 5422.55371094 5362.63330078 5304.35107422 5247.51367188 5191.97119141 5137.61376953 5084.35400391 5032.12011719 4980.86230469 4930.53271484 4881.09472656 4832.51806641 4784.77392578 4737.83740234 4691.68847656 4646.30419922 4601.66894531 4557.76464844 4514.57421875 4472.08300781 4430.27392578 4389.13378906 4348.65039062 4308.80810547 4269.59082031 4230.99169922 4192.99560547 4155.58740234 4118.76123047 4082.49804688 4046.79321289 4011.63403320 3977.00927734 3942.90332031 3909.31347656 3876.22680664 3843.63378906 3811.52539062 3779.88964844 3748.72119141 3718.00634766 3687.74267578 3657.92016602 3628.52441406 3599.55566406 3571.00341797 3542.85644531 3515.11572266 3487.76562500 3460.79980469 3434.21875000 3408.00634766 3382.16503906 3356.68261719 3331.55371094 3306.77441406 3282.33862305 3258.23974609 3234.46972656 3211.02783203 3187.90600586 3165.10009766 3142.60449219 3120.41210938 3098.52246094 3076.92675781 3055.62304688 3034.60717773 3013.87036133 2993.41333008 2973.22998047 2953.31445312 2933.66503906 2914.27612305 2895.14453125 2876.26611328 2857.63842773 2839.25439453 2821.11376953 2803.21142578 2785.54638672 2768.10913086 2750.90332031 2733.92041016 2717.16015625 2700.61718750 2684.28930664 2668.17626953 2652.27026367 2636.56933594 2621.07324219 2605.77856445 2590.67919922 2575.77490234 2561.06372070 2546.53979492 2532.20410156 2518.05273438 2504.07958984 2490.28808594 2476.67138672 2463.22973633 2449.95849609 2436.85571289 2423.91967773 2411.14819336 2398.53906250 2386.08886719 2373.79687500 2361.65966797 2349.67529297 2337.84204102 2326.15771484 2314.61987305 2303.22729492 2291.97729492 2280.86816406 2269.89794922 2259.06420898 2248.36572266 2237.80078125 2227.36596680 2217.06127930 2206.88476562 2196.83325195 2186.90673828 2177.10205078 2167.41748047 2157.85278320 2148.40478516 2139.07275391 2129.85473633 2120.74975586 2111.75537109 2102.87036133 2094.09326172 2085.42211914 2076.85620117 2068.39355469 2060.03320312 2051.77294922 2043.61193848 2035.54870605 2027.58166504 2019.70959473 2011.93139648 2004.24536133 1996.65039062 1989.14526367 1981.72839355 1974.39916992 1967.15539551 1959.99658203 1952.92138672 1945.92883301 1939.01708984 1932.18530273 1925.43286133 1918.75817871 1912.15979004 1905.63732910 1899.18920898 1892.81445312 1886.51208496 1880.28112793 1874.12060547 1868.02917480 1862.00634766 1856.05065918 1850.16113281 1844.33715820 1838.57763672 1832.88159180 1827.24816895 1821.67626953 1816.16552734 1810.71411133 1805.32189941 1799.98779297 1794.71142578 1789.49108887 1784.32641602 1779.21679688 1774.16088867 1769.15832520 1764.20812988 1759.30957031 1754.46191406 1749.66442871 1744.91662598 1740.21728516 1735.56567383 1730.96166992 1726.40393066 1721.89221191 1717.42553711 1713.00354004 1708.62524414 1704.29028320 1699.99755859 1695.74694824 1691.53759766 1687.36877441 1683.24023438 1679.15087891 1675.10083008 1671.08886719 1667.11425781 1663.17724609 1659.27673340 1655.41210938 1651.58325195 1647.78930664 1644.02966309 1640.30432129 1636.61230469 1632.95312500 1629.32678223 1625.73193359 1622.16870117 1618.63647461 1615.13525391 1611.66381836 1608.22192383 1604.80981445 1601.42614746 1598.07080078 1594.74365234 1591.44384766 1588.17163086 1584.92578125 1581.70654297 1578.51318359 1575.34545898 1572.20288086 1569.08520508 1565.99218750 1562.92321777 1559.87817383 1556.85668945 1553.85791016 1550.88232422 1547.92919922 1544.99804688 1542.08886719 1539.20129395 1536.33483887 1533.48937988 1530.66455078 1527.86010742 1525.07568359 1522.31103516 1519.56604004
6600.99560547 6427.64208984 6273.25097656 6136.27929688 6014.62158203 5905.97558594 5808.11083984 5719.01757812 5636.98583984 5560.62011719 5488.80078125 5420.66210938 5355.53515625 5292.90527344 5232.39062500 5173.68798828 5116.57714844 5060.88476562 5006.47509766 4953.24707031 4901.11523438 4850.01464844 4799.89208984 4750.70263672 4702.40673828 4654.97265625 4608.37353516 4562.58203125 4517.57812500 4473.33789062 4429.84130859 4387.07421875 4345.01562500 4303.64892578 4262.96337891 4222.93847656 4183.56445312 4144.82617188 4106.70703125 4069.19335938 4032.27978516 3995.94531250 3960.18237305 3924.98071289 3890.32690430 3856.20483398 3822.61157227 3789.53466797 3756.96240234 3724.88500977 3693.29345703 3662.17846680 3631.53002930 3601.34130859 3571.59912109 3542.29760742 3513.43115234 3484.98608398 3456.95825195 3429.34350586 3402.12695312 3375.30810547 3348.87451172 3322.82128906 3297.14257812 3271.82885742 3246.88183594 3222.28442383 3198.03955078 3174.13427734 3150.57031250 3127.33569336 3104.42602539 3081.83935547 3059.56762695 3037.60571289 3015.94995117 2994.59350586 2973.53417969 2952.76562500 2932.28198242 2912.08227539 2892.16015625 2872.51074219 2853.12939453 2834.01416016 2815.16113281 2796.56298828 2778.21777344 2760.12304688 2742.27465820 2724.66625977 2707.29785156 2690.16259766 2673.25878906 2656.58300781 2640.13378906 2623.90258789 2607.89135742 2592.09497070 2576.51074219 2561.13427734 2545.96459961 2530.99707031 2516.22802734 2501.65673828 2487.28125000 2473.09619141 2459.09887695 2445.28759766 2431.66137695 2418.21435547 2404.94628906 2391.85253906 2378.93359375 2366.18530273 2353.60327148 2341.18896484 2328.93945312 2316.84936523 2304.91845703 2293.14526367 2281.52539062 2270.05908203 2258.74365234 2247.57470703 2236.55297852 2225.67431641 2214.94018555 2204.34326172 2193.88574219 2183.56542969 2173.37744141 2163.32275391 2153.39916992 2143.60400391 2133.93505859 2124.39257812 2114.97192383 2105.67407227 2096.49584961 2087.43554688 2078.49194336 2069.66333008 2060.94824219 2052.34472656 2043.85107422 2035.46655273 2027.18896484 2019.01660156 2010.94848633 2002.98327637 1995.11865234 1987.35412598 1979.68774414 1972.11816406 1964.64428711 1957.26416016 1949.97753906 1942.78161621 1935.67651367 1928.65991211 1921.73095703 1914.88842773 1908.13085938 1901.45751953 1894.86621094 1888.35668945 1881.92761230 1875.57739258 1869.30529785 1863.10998535 1856.99096680 1850.94592285 1844.97460938 1839.07568359 1833.24804688 1827.49096680 1821.80310059 1816.18347168 1810.63110352 1805.14538574 1799.72460938 1794.36816406 1789.07519531 1783.84472656 1778.67541504 1773.56713867 1768.51818848 1763.52807617 1758.59582520 1753.72070312 1748.90173340 1744.13793945 1739.42846680 1734.77294922 1730.16992188 1725.61901855 1721.11914062 1716.66992188 1712.27014160 1707.91918945 1703.61645508 1699.36108398 1695.15222168 1690.98950195 1686.87158203 1682.79833984 1678.76879883 1674.78247070 1670.83837891 1666.93627930 1663.07495117 1659.25402832 1655.47290039 1651.73120117 1648.02758789 1644.36242676 1640.73413086 1637.14257812 1633.58728027 1630.06738281 1626.58251953 1623.13195801 1619.71533203 1616.33203125 1612.98120117 1609.66284180 1606.37622070 1603.12084961 1599.89599609 1596.70117188 1593.53637695 1590.40087891 1587.29394531 1584.21508789 1581.16430664 1578.14074707 1575.14404297 1572.17407227 1569.23010254 1566.31152344 1563.41833496 1560.54980469 1557.70581055 1554.88598633 1552.08959961 1549.31640625 1546.56616211 1543.83850098 1541.13256836 1538.44873047 1535.78637695 1533.14501953 1530.52453613 1527.92431641 1525.34399414 1522.78393555 1520.24267578 1517.72106934 1515.21813965 1512.73388672 1510.26757812 1507.81921387 1505.38879395
6310.41015625 6150.83105469 6009.57958984 5884.44433594 5772.96386719 5672.75927734 5581.71826172 5498.07421875 5420.39208984 5347.54150391 5278.63867188 5212.99560547 5150.08642578 5089.49853516 5030.91308594 4974.08593750 4918.81787109 4864.95751953 4812.38085938 4760.98925781 4710.70166016 4661.45214844 4613.18505859 4565.85351562 4519.41796875 4473.84521484 4429.10205078 4385.16357422 4342.00341797 4299.60253906 4257.93701172 4216.98925781 4176.74023438 4137.17431641 4098.27587891 4060.02685547 4022.41381836 3985.42333984 3949.04125977 3913.25317383 3878.04760742 3843.41162109 3809.33203125 3775.79858398 3742.80029297 3710.32421875 3678.36108398 3646.90014648 3615.93164062 3585.44360352 3555.42871094 3525.87695312 3496.77880859 3468.12500000 3439.90795898 3412.11962891 3384.75024414 3357.79370117 3331.23999023 3305.08349609 3279.31591797 3253.93090820 3228.92114258 3204.27880859 3179.99804688 3156.07348633 3132.49658203 3109.26367188 3086.36791992 3063.80175781 3041.56103516 3019.64111328 2998.03417969 2976.73681641 2955.74291992 2935.04785156 2914.64697266 2894.53417969 2874.70605469 2855.15722656 2835.88378906 2816.88037109 2798.14306641 2779.66796875 2761.45043945 2743.48706055 2725.77294922 2708.30468750 2691.07861328 2674.09033203 2657.33666992 2640.81372070 2624.51806641 2608.44628906 2592.59472656 2576.96044922 2561.53955078 2546.32958984 2531.32666016 2516.52783203 2501.92993164 2487.53027344 2473.32592773 2459.31396484 2445.49072266 2431.85424805 2418.40136719 2405.12963867 2392.03613281 2379.11865234 2366.37402344 2353.79980469 2341.39379883 2329.15332031 2317.07617188 2305.15942383 2293.40087891 2281.79858398 2270.35034180 2259.05346680 2247.90576172 2236.90527344 2226.04956055 2215.33691406 2204.76513672 2194.33203125 2184.03540039 2173.87377930 2163.84472656 2153.94653320 2144.17675781 2134.53466797 2125.01757812 2115.62377930 2106.35131836 2097.19873047 2088.16406250 2079.24609375 2070.44238281 2061.75170898 2053.17211914 2044.70239258 2036.34069824 2028.08544922 2019.93505859 2011.88830566 2003.94299316 1996.09826660 1988.35241699 1980.70410156 1973.15161133 1965.69409180 1958.32946777 1951.05651855 1943.87451172 1936.78125000 1929.77612305 1922.85742188 1916.02404785 1909.27465820 1902.60803223 1896.02270508 1889.51806641 1883.09228516 1876.74462891 1870.47338867 1864.27807617 1858.15722656 1852.10986328 1846.13476562 1840.23095703 1834.39709473 1828.63232422 1822.93579102 1817.30615234 1811.74243164 1806.24389648 1800.80932617 1795.43786621 1790.12841797 1784.88037109 1779.69238281 1774.56347656 1769.49340820 1764.48046875 1759.52416992 1754.62377930 1749.77832031 1744.98681641 1740.24877930 1735.56274414 1730.92871094 1726.34521484 1721.81176758 1717.32763672 1712.89184570 1708.50366211 1704.16247559 1699.86730957 1695.61816406 1691.41357422 1687.25280762 1683.13562012 1679.06127930 1675.02868652 1671.03784180 1667.08740234 1663.17700195 1659.30615234 1655.47387695 1651.67993164 1647.92333984 1644.20410156 1640.52099609 1636.87377930 1633.26196289 1629.68457031 1626.14135742 1622.63183594 1619.15527344 1615.71130371 1612.29919434 1608.91845703 1605.56909180 1602.24975586 1598.96069336 1595.70104980 1592.47045898 1589.26831055 1586.09423828 1582.94836426 1579.82934570 1576.73681641 1573.67089844 1570.63110352 1567.61669922 1564.62744141 1561.66259766 1558.72241211 1555.80615234 1552.91345215 1550.04382324 1547.19702148 1544.37268066 1541.57031250 1538.79003906 1536.03088379 1533.29296875 1530.57568359 1527.87866211 1525.20166016 1522.54467773 1519.90686035 1517.28833008 1514.68847656 1512.10729980 1509.54418945 1506.99914551 1504.47143555 1501.96118164 1499.46813965 1496.99133301 1494.53149414 1492.08752441 1489.65954590
6494.05761719 6306.19970703 6139.71777344 5993.05175781 5863.83935547 5749.41748047 5647.19140625 5554.83593750 5470.38183594 5392.22705078 5319.10693359 5250.03613281 5184.25927734 5121.20068359 5060.42529297 5001.59863281 4944.47021484 4888.84570312 4834.57519531 4781.53906250 4729.65039062 4678.82958984 4629.02148438 4580.17382812 4532.24707031 4485.20361328 4439.01123047 4393.64404297 4349.07910156 4305.29296875 4262.26416016 4219.97021484 4178.39941406 4137.53125000 4097.35058594 4057.83691406 4018.98217773 3980.76904297 3943.18286133 3906.21142578 3869.84350586 3834.05908203 3798.85253906 3764.21020508 3730.11987305 3696.57128906 3663.55664062 3631.05566406 3599.06860352 3567.57861328 3536.57666016 3506.05517578 3476.00561523 3446.41577148 3417.28173828 3388.58959961 3360.33349609 3332.50537109 3305.09814453 3278.10278320 3251.51196289 3225.31909180 3199.51562500 3174.09741211 3149.05419922 3124.38427734 3100.07519531 3076.12500000 3052.52734375 3029.27465820 3006.36376953 2983.78417969 2961.53515625 2939.60986328 2918.00244141 2896.70629883 2875.71948242 2855.03540039 2834.64965820 2814.55810547 2794.75488281 2775.23608398 2755.99707031 2737.03320312 2718.34033203 2699.91601562 2681.75366211 2663.85034180 2646.20190430 2628.80468750 2611.65576172 2594.74951172 2578.08471680 2561.65454102 2545.45825195 2529.49072266 2513.75073242 2498.23120117 2482.93115234 2467.84667969 2452.97753906 2438.31518555 2423.86083984 2409.60864258 2395.55688477 2381.70336914 2368.04248047 2354.57519531 2341.29589844 2328.20166016 2315.29003906 2302.56030273 2290.00585938 2277.62939453 2265.42309570 2253.38671875 2241.51831055 2229.81372070 2218.27221680 2206.89013672 2195.66528320 2184.59570312 2173.67846680 2162.91186523 2152.29394531 2141.82128906 2131.49243164 2121.30566406 2111.25830078 2101.34814453 2091.57373047 2081.93164062 2072.42163086 2063.04101562 2053.78759766 2044.65979004 2035.65539551 2026.77282715 2018.01049805 2009.36596680 2000.83740234 1992.42358398 1984.12304688 1975.93286133 1967.85278320 1959.88037109 1952.01342773 1944.25146484 1936.59301758 1929.03503418 1921.57690430 1914.21801758 1906.95507812 1899.78735352 1892.71374512 1885.73217773 1878.84179688 1872.04101562 1865.32836914 1858.70288086 1852.16247559 1845.70605469 1839.33276367 1833.04064941 1826.82934570 1820.69604492 1814.64172363 1808.66284180 1802.76025391 1796.93115234 1791.17456055 1785.49072266 1779.87695312 1774.33276367 1768.85742188 1763.44885254 1758.10668945 1752.83056641 1747.61718750 1742.46777344 1737.38024902 1732.35461426 1727.38769531 1722.48071289 1717.63195801 1712.84020996 1708.10498047 1703.42517090 1698.79980469 1694.22827148 1689.70898438 1685.24194336 1680.82568359 1676.45971680 1672.14294434 1667.87500000 1663.65454102 1659.48120117 1655.35424805 1651.27246094 1647.23535156 1643.24243164 1639.29272461 1635.38525391 1631.51977539 1627.69482422 1623.91125488 1620.16674805 1616.46130371 1612.79443359 1609.16577148 1605.57409668 1602.01855469 1598.49951172 1595.01538086 1591.56640625 1588.15112305 1584.76989746 1581.42163086 1578.10571289 1574.82226562 1571.56982422 1568.34851074 1565.15747070 1561.99633789 1558.86474609 1555.76184082 1552.68774414 1549.64135742 1546.62280273 1543.63085938 1540.66589355 1537.72692871 1534.81396484 1531.92602539 1529.06298828 1526.22460938 1523.41040039 1520.61962891 1517.85253906 1515.10815430 1512.38647461 1509.68676758 1507.00903320 1504.35278320 1501.71752930 1499.10339355 1496.50939941 1493.93579102 1491.38183594 1488.84741211 1486.33203125 1483.83569336 1481.35766602 1478.89819336 1476.45666504 1474.03247070 1471.62597656 1469.23681641 1466.86401367 1464.50830078 1462.16870117 1459.84509277 1457.53735352 1455.24511719
