0.55943114 0.54763758 0.54337084 0.55140018 0.54345113 0.53985816 0.54536480 0.53963995 0.53518379 0.53910643 0.53820437 0.53283006 0.53194362 0.53399754 0.53168112 0.52870715 0.53035939 0.52991879 0.52666587 0.52706933 0.52705461 0.52390945 0.52311474 0.52297217 0.52008092 0.51840425 0.51783758 0.51531804 0.51345986 0.51244545 0.50996274 0.50796062 0.50645214 0.50380957 0.50148213 0.49936432 0.49633595 0.49352169 0.49071166 0.48720044 0.48386103 0.48032385 0.47624725 0.47227454 0.46792403 0.46316016 0.45834792 0.45301414 0.44736400 0.44147944 0.43504751 0.42835468 0.42124465 0.41366845 0.40579095 0.39741772 0.38869509 0.37957314 0.37004671 0.36023715 0.35006338 0.33967999 0.32907343 0.31832364 0.30749059 0.29661077 0.28578278 0.27500778 0.26439580 0.25396705 0.24380307 0.23393209 0.22441609 0.21529415 0.20659073 0.19834729 0.19057390 0.18330187 0.17652237 0.17025675 0.16449019 0.15922235 0.15443327 0.15010676 0.14621925 0.14274071 0.13964538 0.13689664 0.13446745 0.13232023 0.13042825 0.12875806 0.12728423 0.12597924 0.12482010 0.12378630 0.12285750 0.12201881 0.12125342 0.12055032 0.11989662 0.11928385 0.11870278 0.11814639 0.11760934 0.11708566 0.11657215 0.11606481 0.11556222 0.11506094 0.11456082 0.11405962 0.11355712 0.11305207 0.11254414 0.11203267 0.11151715 0.11099713 0.11047173 0.10994083 0.10940332 0.10885843 0.10830495 0.10774107 0.10716475 0.10657293 0.10596088 0.10532378 0.10465334 0.10394002 0.10317246 0.10233834 0.10143283 0.10047278 0.09952294 0.09870360 0.09808731 0.09748352 0.09661104 0.09550776 0.09451219 0.09378378 0.09313875 0.09247063 0.09170019 0.09092727 0.09031429 0.08969580 0.08902229 0.08824359 0.08754806 0.08685841 0.08610322 0.08532085 0.08457990 0.08388969 0.08311366 0.08235319 0.08163661 0.08097766 0.08025974 0.07954947 0.07887813 0.07823329 0.07756583 0.07690249 0.07626485 0.07561452 0.07496222 0.07431593 0.07368569 0.07303512 0.07238672 0.07175478 0.07113336 0.07051783 0.06992950 0.06942276 0.06893785 0.06841954 0.06758256 0.06675558 0.06619391 0.06574368 0.06513026 0.06433722 0.06369586 0.06320611 0.06261390 0.06189798 0.06125490 0.06072694 0.06016033 0.05948571 0.05884857 0.05830093 0.05774206 0.05711771 0.05649099 0.05592719 0.05537934 0.05478568 0.05417398 0.05359729 0.05304736 0.05248280 0.05189205 0.05131473 0.05076208 0.05021115 0.04964273 0.04906905 0.04850907 0.04795977 0.04740293 0.04683682 0.04627201 0.04571684 0.04516510 0.04460848 0.04404778 0.04348915 0.04293591 0.04238508 0.04183141 0.04127488 0.04071831 0.04016454 0.03961311 0.03906117 0.03850812 0.03795443 0.03740277 0.03685425 0.03630785 0.03576356 0.03522044 0.03467980 0.03414237 0.03360923 0.03308067 0.03255656 0.03203699 0.03152128 0.03101043 0.03050434 0.03000330 0.02950747 0.02901693 0.02853164 0.02805137 0.02757653 0.02710685 0.02664226 0.02618319 0.02572981 0.02528181 0.02483982 0.02440363 0.02397404 0.02355072 0.02313493 0.02272660 0.02232774 0.02193850 0.02156341
0.54981470 0.54981470 0.54981470 0.54981470 0.54981464 0.54981470 0.54981470 0.54981464 0.54981464 0.54981470 0.54981470 0.54981464 0.54981476 0.54981464 0.54981476 0.54981458 0.54981452 0.54981464 0.54981464 0.54981458 0.54981464 0.54981458 0.54981458 0.54981470 0.54981452 0.54981464 0.54981446 0.54981464 0.54981458 0.54981452 0.54981458 0.54981446 0.54981446 0.54981458 0.54981446 0.54981446 0.54981446 0.54981446 0.54981446 0.54981446 0.54981452 0.54981446 0.54981446 0.54981440 0.54981440 0.54981440 0.54981440 0.54981440 0.54981440 0.54981446 0.54981446 0.54981434 0.54981434 0.54981428 0.54981446 0.54981434 0.54981434 0.54981440 0.54981434 0.54981422 0.54981434 0.54981422 0.54981434 0.54981434 0.54981434 0.54981422 0.54981434 0.54981440 0.54981416 0.54981422 0.54981422 0.54981416 0.54981416 0.54981422 0.54981422 0.54981422 0.54981428 0.54981416 0.54981422 0.54981422 0.54981422 0.54981422 0.54981422 0.54981416 0.54981416 0.54981411 0.54981422 0.54981411 0.54981416 0.54981411 0.54981416 0.54981411 0.54981411 0.54981411 0.54981405 0.54981399 0.54981411 0.54981399 0.54981399 0.54981399 0.54981411 0.54981399 0.54981399 0.54981393 0.54981405 0.54981399 0.54981393 0.54981399 0.54981399 0.54981399 0.54981387 0.54981393 0.54981399 0.54981387 0.54981387 0.54981393 0.54981393 0.54981387 0.54981387 0.54981393 0.54981393 0.54981387 0.54981387 0.54981387 0.54981387 0.54981387 0.54981393 0.54981399 0.54981387 0.54981387 0.54981381 0.54981375 0.54981375 0.54981375 0.54981375 0.54981381 0.54981387 0.54981375 0.54981375 0.54981369 0.54981387 0.54981363 0.54981381 0.54981375 0.54981369 0.54981375 0.54981375 0.54981375 0.54981369 0.54981369 0.54981369 0.54981369 0.54981363 0.54981369 0.54981363 0.54981369 0.54981369 0.54981369 0.54981363 0.54981363 0.54981357 0.54981357 0.54981357 0.54981363 0.54981363 0.54981351 0.54981345 0.54981351 0.54981351 0.54981345 0.54981357 0.54981351 0.54981351 0.54981351 0.54981345 0.54981345 0.54981339 0.54981339 0.54981345 0.54981351 0.54981339 0.54981339 0.54981345 0.54981339 0.54981345 0.54981339 0.54981339 0.54981339 0.54981339 0.54981339 0.54981339 0.54981339 0.54981339 0.54981339 0.54981333 0.54981339 0.54981333 0.54981321 0.54981327 0.54981327 0.54981321 0.54981333 0.54981327 0.54981321 0.54981327 0.54981321 0.54981327 0.54981327 0.54981321 0.54981315 0.54981303 0.54981321 0.54981315 0.54981321 0.54981315 0.54981315 0.54981321 0.54981309 0.54981309 0.54981315 0.54981315 0.54981303 0.54981315 0.54981309 0.54981303 0.54981315 0.54981303 0.54981309 0.54981303 0.54981297 0.54981303 0.54981297 0.54981291 0.54981303 0.54981297 0.54981303 0.54981309 0.54981303 0.54981303 0.54981303 0.54981291 0.54981291 0.54981291 0.54981291 0.54981291 0.54981285 0.54981285 0.54981297 0.54981285 0.54981291 0.54981291 0.54981285 0.54981279 0.54981279 0.54981273 0.54981285 0.54981285 0.54981273 0.54981273 0.54981273 0.54981285 0.54981285 0.54981279 0.54981279 0.54981273 0.54981267
0.54981869 0.54981869 0.54981869 0.54981869 0.54981875 0.54981863 0.54981869 0.54981875 0.54981875 0.54981869 0.54981875 0.54981869 0.54981869 0.54981875 0.54981863 0.54981875 0.54981863 0.54981863 0.54981869 0.54981869 0.54981869 0.54981869 0.54981869 0.54981863 0.54981863 0.54981863 0.54981869 0.54981869 0.54981875 0.54981869 0.54981869 0.54981869 0.54981869 0.54981875 0.54981875 0.54981869 0.54981869 0.54981869 0.54981869 0.54981875 0.54981869 0.54981869 0.54981869 0.54981869 0.54981869 0.54981869 0.54981869 0.54981869 0.54981869 0.54981875 0.54981875 0.54981875 0.54981863 0.54981875 0.54981869 0.54981869 0.54981869 0.54981875 0.54981869 0.54981869 0.54981869 0.54981863 0.54981869 0.54981875 0.54981863 0.54981869 0.54981869 0.54981869 0.54981869 0.54981869 0.54981869 0.54981869 0.54981875 0.54981863 0.54981869 0.54981863 0.54981869 0.54981869 0.54981869 0.54981863 0.54981869 0.54981863 0.54981863 0.54981863 0.54981869 0.54981863 0.54981869 0.54981863 0.54981869 0.54981869 0.54981869 0.54981869 0.54981863 0.54981869 0.54981869 0.54981863 0.54981863 0.54981869 0.54981863 0.54981875 0.54981875 0.54981869 0.54981869 0.54981869 0.54981869 0.54981869 0.54981863 0.54981875 0.54981869 0.54981863 0.54981869 0.54981869 0.54981869 0.54981869 0.54981869 0.54981869 0.54981869 0.54981869 0.54981869 0.54981863 0.54981858 0.54981869 0.54981869 0.54981869 0.54981869 0.54981869 0.54981869 0.54981869 0.54981869 0.54981869 0.54981863 0.54981863 0.54981869 0.54981869 0.54981869 0.54981863 0.54981858 0.54981869 0.54981869 0.54981863 0.54981869 0.54981869 0.54981869 0.54981869 0.54981869 0.54981869 0.54981869 0.54981869 0.54981863 0.54981863 0.54981869 0.54981869 0.54981863 0.54981875 0.54981863 0.54981863 0.54981869 0.54981863 0.54981858 0.54981869 0.54981875 0.54981863 0.54981869 0.54981869 0.54981869 0.54981875 0.54981863 0.54981869 0.54981863 0.54981869 0.54981869 0.54981863 0.54981875 0.54981869 0.54981863 0.54981869 0.54981863 0.54981869 0.54981869 0.54981869 0.54981869 0.54981869 0.54981869 0.54981863 0.54981869 0.54981869 0.54981869 0.54981875 0.54981869 0.54981869 0.54981869 0.54981863 0.54981875 0.54981869 0.54981869 0.54981875 0.54981863 0.54981863 0.54981863 0.54981869 0.54981863 0.54981869 0.54981863 0.54981869 0.54981863 0.54981869 0.54981869 0.54981875 0.54981869 0.54981869 0.54981869 0.54981869 0.54981863 0.54981869 0.54981863 0.54981863 0.54981863 0.54981869 0.54981863 0.54981869 0.54981869 0.54981875 0.54981869 0.54981869 0.54981863 0.54981863 0.54981875 0.54981863 0.54981863 0.54981863 0.54981863 0.54981875 0.54981869 0.54981869 0.54981869 0.54981863 0.54981858 0.54981875 0.54981869 0.54981863 0.54981869 0.54981869 0.54981869 0.54981869 0.54981875 0.54981863 0.54981869 0.54981875 0.54981858 0.54981863 0.54981875 0.54981863 0.54981869 0.54981869 0.54981869 0.54981869 0.54981863 0.54981863 0.54981863 0.54981869 0.54981875 0.54981863 0.54981875 0.54981858 0.54981863 0.54981869
0.54981327 0.54981327 0.54981333 0.54981327 0.54981327 0.54981327 0.54981321 0.54981321 0.54981327 0.54981321 0.54981321 0.54981327 0.54981321 0.54981321 0.54981321 0.54981321 0.54981321 0.54981321 0.54981309 0.54981321 0.54981321 0.54981309 0.54981321 0.54981309 0.54981309 0.54981309 0.54981321 0.54981321 0.54981321 0.54981321 0.54981309 0.54981309 0.54981315 0.54981309 0.54981309 0.54981303 0.54981303 0.54981309 0.54981303 0.54981297 0.54981303 0.54981303 0.54981303 0.54981297 0.54981303 0.54981297 0.54981303 0.54981303 0.54981297 0.54981291 0.54981297 0.54981297 0.54981297 0.54981297 0.54981297 0.54981285 0.54981297 0.54981291 0.54981297 0.54981297 0.54981291 0.54981297 0.54981285 0.54981279 0.54981285 0.54981279 0.54981297 0.54981285 0.54981285 0.54981291 0.54981285 0.54981279 0.54981279 0.54981285 0.54981285 0.54981279 0.54981273 0.54981279 0.54981279 0.54981279 0.54981273 0.54981279 0.54981273 0.54981279 0.54981267 0.54981273 0.54981273 0.54981273 0.54981273 0.54981267 0.54981267 0.54981267 0.54981267 0.54981273 0.54981261 0.54981267 0.54981267 0.54981267 0.54981256 0.54981256 0.54981256 0.54981267 0.54981267 0.54981261 0.54981261 0.54981261 0.54981256 0.54981261 0.54981256 0.54981250 0.54981261 0.54981250 0.54981244 0.54981250 0.54981250 0.54981256 0.54981250 0.54981256 0.54981250 0.54981256 0.54981250 0.54981244 0.54981250 0.54981244 0.54981244 0.54981250 0.54981238 0.54981238 0.54981250 0.54981238 0.54981238 0.54981238 0.54981238 0.54981238 0.54981238 0.54981238 0.54981238 0.54981226 0.54981232 0.54981226 0.54981238 0.54981232 0.54981238 0.54981232 0.54981226 0.54981226 0.54981226 0.54981220 0.54981226 0.54981226 0.54981226 0.54981220 0.54981226 0.54981220 0.54981220 0.54981220 0.54981220 0.54981220 0.54981220 0.54981220 0.54981214 0.54981214 0.54981220 0.54981220 0.54981214 0.54981214 0.54981214 0.54981214 0.54981214 0.54981202 0.54981208 0.54981214 0.54981196 0.54981214 0.54981208 0.54981208 0.54981202 0.54981202 0.54981208 0.54981196 0.54981202 0.54981196 0.54981196 0.54981202 0.54981202 0.54981196 0.54981190 0.54981190 0.54981202 0.54981190 0.54981196 0.54981190 0.54981190 0.54981190 0.54981190 0.54981190 0.54981190 0.54981184 0.54981190 0.54981184 0.54981184 0.54981184 0.54981190 0.54981184 0.54981184 0.54981172 0.54981178 0.54981178 0.54981178 0.54981172 0.54981178 0.54981166 0.54981178 0.54981172 0.54981172 0.54981172 0.54981172 0.54981172 0.54981166 0.54981166 0.54981166 0.54981166 0.54981172 0.54981154 0.54981166 0.54981166 0.54981166 0.54981166 0.54981154 0.54981166 0.54981160 0.54981160 0.54981148 0.54981148 0.54981154 0.54981154 0.54981154 0.54981148 0.54981148 0.54981154 0.54981148 0.54981148 0.54981142 0.54981154 0.54981148 0.54981148 0.54981154 0.54981148 0.54981148 0.54981136 0.54981142 0.54981130 0.54981136 0.54981148 0.54981136 0.54981142 0.54981136 0.54981130 0.54981136 0.54981130 0.54981124 0.54981130 0.54981130 0.54981136 0.54981124 0.54981130
0.54981762 0.54981768 0.54981768 0.54981768 0.54981768 0.54981768 0.54981768 0.54981762 0.54981768 0.54981762 0.54981762 0.54981762 0.54981762 0.54981768 0.54981768 0.54981768 0.54981768 0.54981768 0.54981768 0.54981768 0.54981768 0.54981768 0.54981768 0.54981768 0.54981768 0.54981768 0.54981768 0.54981768 0.54981768 0.54981762 0.54981768 0.54981774 0.54981768 0.54981768 0.54981762 0.54981768 0.54981768 0.54981768 0.54981762 0.54981762 0.54981762 0.54981762 0.54981768 0.54981768 0.54981762 0.54981768 0.54981768 0.54981768 0.54981762 0.54981768 0.54981762 0.54981762 0.54981768 0.54981762 0.54981762 0.54981762 0.54981762 0.54981762 0.54981762 0.54981768 0.54981762 0.54981768 0.54981768 0.54981768 0.54981774 0.54981768 0.54981768 0.54981768 0.54981768 0.54981768 0.54981768 0.54981762 0.54981768 0.54981762 0.54981762 0.54981762 0.54981762 0.54981768 0.54981768 0.54981762 0.54981768 0.54981768 0.54981768 0.54981768 0.54981762 0.54981768 0.54981762 0.54981762 0.54981762 0.54981768 0.54981762 0.54981762 0.54981768 0.54981768 0.54981768 0.54981768 0.54981768 0.54981762 0.54981762 0.54981762 0.54981762 0.54981762 0.54981762 0.54981768 0.54981768 0.54981768 0.54981768 0.54981762 0.54981768 0.54981768 0.54981768 0.54981768 0.54981768 0.54981768 0.54981768 0.54981768 0.54981768 0.54981768 0.54981768 0.54981762 0.54981768 0.54981768 0.54981762 0.54981762 0.54981762 0.54981768 0.54981768 0.54981768 0.54981762 0.54981768 0.54981762 0.54981762 0.54981768 0.54981768 0.54981762 0.54981762 0.54981768 0.54981768 0.54981762 0.54981774 0.54981774 0.54981762 0.54981762 0.54981768 0.54981768 0.54981768 0.54981768 0.54981774 0.54981774 0.54981768 0.54981762 0.54981768 0.54981774 0.54981768 0.54981762 0.54981762 0.54981768 0.54981762 0.54981762 0.54981762 0.54981762 0.54981768 0.54981768 0.54981762 0.54981768 0.54981768 0.54981768 0.54981768 0.54981768 0.54981762 0.54981762 0.54981762 0.54981762 0.54981762 0.54981762 0.54981768 0.54981768 0.54981762 0.54981762 0.54981768 0.54981762 0.54981768 0.54981768 0.54981768 0.54981768 0.54981762 0.54981762 0.54981762 0.54981768 0.54981768 0.54981762 0.54981768 0.54981768 0.54981768 0.54981768 0.54981768 0.54981768 0.54981768 0.54981768 0.54981774 0.54981774 0.54981762 0.54981768 0.54981774 0.54981774 0.54981768 0.54981768 0.54981768 0.54981768 0.54981774 0.54981774 0.54981768 0.54981768 0.54981768 0.54981768 0.54981762 0.54981768 0.54981768 0.54981768 0.54981762 0.54981774 0.54981774 0.54981762 0.54981774 0.54981774 0.54981774 0.54981774 0.54981774 0.54981768 0.54981768 0.54981774 0.54981774 0.54981768 0.54981774 0.54981774 0.54981774 0.54981774 0.54981774 0.54981774 0.54981768 0.54981768 0.54981768 0.54981768 0.54981768 0.54981768 0.54981768 0.54981774 0.54981768 0.54981774 0.54981768 0.54981774 0.54981774 0.54981768 0.54981768 0.54981768 0.54981768 0.54981774 0.54981774 0.54981774 0.54981774 0.54981774 0.54981768 0.54981768 0.54981768 0.54981768 0.54981762
0.54981828 0.54981828 0.54981828 0.54981840 0.54981834 0.54981846 0.54981852 0.54981834 0.54981828 0.54981852 0.54981828 0.54981840 0.54981846 0.54981840 0.54981840 0.54981828 0.54981840 0.54981834 0.54981834 0.54981828 0.54981840 0.54981840 0.54981840 0.54981840 0.54981834 0.54981840 0.54981834 0.54981852 0.54981828 0.54981834 0.54981816 0.54981828 0.54981834 0.54981816 0.54981840 0.54981834 0.54981834 0.54981834 0.54981834 0.54981834 0.54981834 0.54981840 0.54981834 0.54981828 0.54981840 0.54981834 0.54981834 0.54981834 0.54981834 0.54981834 0.54981834 0.54981834 0.54981846 0.54981840 0.54981840 0.54981840 0.54981846 0.54981834 0.54981840 0.54981828 0.54981840 0.54981828 0.54981840 0.54981834 0.54981834 0.54981834 0.54981840 0.54981852 0.54981846 0.54981846 0.54981828 0.54981828 0.54981828 0.54981834 0.54981834 0.54981840 0.54981834 0.54981834 0.54981840 0.54981828 0.54981834 0.54981828 0.54981840 0.54981828 0.54981834 0.54981828 0.54981828 0.54981840 0.54981840 0.54981816 0.54981828 0.54981840 0.54981834 0.54981828 0.54981828 0.54981834 0.54981828 0.54981840 0.54981834 0.54981828 0.54981834 0.54981840 0.54981840 0.54981840 0.54981852 0.54981834 0.54981828 0.54981846 0.54981840 0.54981840 0.54981840 0.54981828 0.54981816 0.54981834 0.54981828 0.54981834 0.54981846 0.54981852 0.54981810 0.54981816 0.54981852 0.54981852 0.54981834 0.54981828 0.54981828 0.54981840 0.54981822 0.54981834 0.54981834 0.54981840 0.54981834 0.54981834 0.54981828 0.54981846 0.54981834 0.54981834 0.54981828 0.54981840 0.54981840 0.54981840 0.54981840 0.54981834 0.54981840 0.54981816 0.54981828 0.54981828 0.54981810 0.54981834 0.54981828 0.54981828 0.54981834 0.54981840 0.54981852 0.54981828 0.54981828 0.54981840 0.54981840 0.54981822 0.54981840 0.54981834 0.54981846 0.54981816 0.54981834 0.54981834 0.54981840 0.54981834 0.54981828 0.54981840 0.54981834 0.54981840 0.54981828 0.54981828 0.54981834 0.54981840 0.54981834 0.54981816 0.54981828 0.54981828 0.54981840 0.54981828 0.54981828 0.54981828 0.54981834 0.54981834 0.54981816 0.54981852 0.54981852 0.54981834 0.54981828 0.54981840 0.54981816 0.54981834 0.54981834 0.54981840 0.54981828 0.54981834 0.54981828 0.54981840 0.54981840 0.54981834 0.54981834 0.54981840 0.54981840 0.54981834 0.54981834 0.54981834 0.54981828 0.54981828 0.54981822 0.54981840 0.54981834 0.54981834 0.54981840 0.54981834 0.54981834 0.54981840 0.54981840 0.54981852 0.54981828 0.54981840 0.54981828 0.54981840 0.54981828 0.54981840 0.54981828 0.54981828 0.54981822 0.54981840 0.54981834 0.54981834 0.54981834 0.54981816 0.54981828 0.54981834 0.54981840 0.54981828 0.54981822 0.54981834 0.54981828 0.54981828 0.54981834 0.54981828 0.54981828 0.54981834 0.54981840 0.54981828 0.54981828 0.54981828 0.54981828 0.54981834 0.54981822 0.54981810 0.54981846 0.54981834 0.54981840 0.54981834 0.54981828 0.54981834 0.54981834 0.54981834 0.54981840 0.54981828 0.54981828 0.54981834 0.54981834 0.54981840
0.54981518 0.54981512 0.54981518 0.54981512 0.54981512 0.54981512 0.54981512 0.54981518 0.54981524 0.54981518 0.54981524 0.54981524 0.54981518 0.54981524 0.54981524 0.54981518 0.54981518 0.54981518 0.54981524 0.54981518 0.54981518 0.54981518 0.54981524 0.54981524 0.54981512 0.54981506 0.54981518 0.54981512 0.54981518 0.54981518 0.54981518 0.54981518 0.54981518 0.54981518 0.54981518 0.54981524 0.54981512 0.54981512 0.54981506 0.54981512 0.54981512 0.54981512 0.54981512 0.54981506 0.54981518 0.54981518 0.54981518 0.54981524 0.54981518 0.54981524 0.54981518 0.54981518 0.54981518 0.54981518 0.54981512 0.54981524 0.54981518 0.54981518 0.54981518 0.54981524 0.54981518 0.54981518 0.54981524 0.54981518 0.54981524 0.54981518 0.54981512 0.54981518 0.54981518 0.54981512 0.54981518 0.54981518 0.54981512 0.54981518 0.54981512 0.54981506 0.54981512 0.54981530 0.54981518 0.54981506 0.54981494 0.54981506 0.54981512 0.54981512 0.54981518 0.54981518 0.54981524 0.54981518 0.54981518 0.54981506 0.54981518 0.54981518 0.54981524 0.54981518 0.54981518 0.54981518 0.54981518 0.54981512 0.54981518 0.54981512 0.54981512 0.54981512 0.54981518 0.54981524 0.54981518 0.54981524 0.54981524 0.54981524 0.54981524 0.54981518 0.54981524 0.54981518 0.54981518 0.54981518 0.54981518 0.54981518 0.54981512 0.54981512 0.54981512 0.54981518 0.54981512 0.54981512 0.54981512 0.54981518 0.54981518 0.54981518 0.54981518 0.54981524 0.54981518 0.54981518 0.54981518 0.54981512 0.54981512 0.54981512 0.54981512 0.54981500 0.54981506 0.54981512 0.54981518 0.54981512 0.54981506 0.54981506 0.54981506 0.54981506 0.54981506 0.54981518 0.54981518 0.54981524 0.54981518 0.54981506 0.54981518 0.54981518 0.54981518 0.54981518 0.54981518 0.54981518 0.54981512 0.54981506 0.54981518 0.54981518 0.54981506 0.54981518 0.54981506 0.54981518 0.54981518 0.54981518 0.54981518 0.54981512 0.54981512 0.54981518 0.54981524 0.54981506 0.54981518 0.54981518 0.54981518 0.54981506 0.54981518 0.54981518 0.54981512 0.54981512 0.54981506 0.54981518 0.54981518 0.54981506 0.54981524 0.54981506 0.54981530 0.54981512 0.54981518 0.54981506 0.54981506 0.54981518 0.54981512 0.54981512 0.54981518 0.54981512 0.54981506 0.54981506 0.54981518 0.54981518 0.54981518 0.54981518 0.54981494 0.54981512 0.54981506 0.54981518 0.54981506 0.54981506 0.54981512 0.54981500 0.54981512 0.54981518 0.54981506 0.54981506 0.54981512 0.54981518 0.54981506 0.54981506 0.54981512 0.54981518 0.54981506 0.54981506 0.54981512 0.54981518 0.54981506 0.54981518 0.54981506 0.54981512 0.54981506 0.54981518 0.54981512 0.54981512 0.54981506 0.54981512 0.54981518 0.54981518 0.54981518 0.54981512 0.54981512 0.54981518 0.54981506 0.54981500 0.54981518 0.54981512 0.54981518 0.54981500 0.54981512 0.54981518 0.54981500 0.54981500 0.54981494 0.54981518 0.54981512 0.54981506 0.54981518 0.54981518 0.54981506 0.54981506 0.54981506 0.54981518 0.54981512 0.54981506 0.54981512 0.54981512 0.54981506 0.54981512
0.54981762 0.54981762 0.54981762 0.54981756 0.54981756 0.54981762 0.54981762 0.54981756 0.54981762 0.54981762 0.54981756 0.54981756 0.54981750 0.54981750 0.54981762 0.54981750 0.54981762 0.54981762 0.54981750 0.54981762 0.54981750 0.54981762 0.54981762 0.54981750 0.54981756 0.54981756 0.54981750 0.54981750 0.54981750 0.54981750 0.54981744 0.54981750 0.54981756 0.54981750 0.54981744 0.54981744 0.54981750 0.54981750 0.54981750 0.54981750 0.54981756 0.54981750 0.54981750 0.54981744 0.54981750 0.54981750 0.54981750 0.54981744 0.54981750 0.54981750 0.54981744 0.54981738 0.54981744 0.54981750 0.54981750 0.54981744 0.54981750 0.54981744 0.54981744 0.54981738 0.54981738 0.54981744 0.54981744 0.54981744 0.54981738 0.54981750 0.54981744 0.54981744 0.54981738 0.54981738 0.54981744 0.54981744 0.54981744 0.54981738 0.54981744 0.54981744 0.54981738 0.54981726 0.54981732 0.54981732 0.54981738 0.54981738 0.54981732 0.54981738 0.54981738 0.54981732 0.54981738 0.54981738 0.54981738 0.54981732 0.54981744 0.54981738 0.54981732 0.54981738 0.54981738 0.54981738 0.54981738 0.54981738 0.54981738 0.54981732 0.54981738 0.54981738 0.54981738 0.54981738 0.54981738 0.54981738 0.54981732 0.54981738 0.54981738 0.54981738 0.54981738 0.54981738 0.54981732 0.54981738 0.54981738 0.54981732 0.54981732 0.54981732 0.54981732 0.54981738 0.54981732 0.54981726 0.54981726 0.54981726 0.54981732 0.54981738 0.54981738 0.54981732 0.54981726 0.54981732 0.54981732 0.54981732 0.54981732 0.54981726 0.54981732 0.54981732 0.54981732 0.54981732 0.54981726 0.54981726 0.54981732 0.54981732 0.54981732 0.54981726 0.54981732 0.54981732 0.54981726 0.54981726 0.54981732 0.54981732 0.54981726 0.54981726 0.54981720 0.54981720 0.54981726 0.54981726 0.54981720 0.54981720 0.54981720 0.54981726 0.54981720 0.54981726 0.54981720 0.54981726 0.54981726 0.54981720 0.54981714 0.54981714 0.54981714 0.54981714 0.54981714 0.54981709 0.54981714 0.54981714 0.54981714 0.54981709 0.54981714 0.54981714 0.54981714 0.54981709 0.54981720 0.54981714 0.54981714 0.54981714 0.54981720 0.54981714 0.54981709 0.54981714 0.54981714 0.54981714 0.54981714 0.54981714 0.54981714 0.54981714 0.54981714 0.54981714 0.54981714 0.54981709 0.54981709 0.54981709 0.54981714 0.54981709 0.54981714 0.54981709 0.54981709 0.54981709 0.54981709 0.54981709 0.54981714 0.54981703 0.54981703 0.54981709 0.54981709 0.54981709 0.54981714 0.54981709 0.54981697 0.54981709 0.54981709 0.54981703 0.54981709 0.54981709 0.54981709 0.54981709 0.54981709 0.54981709 0.54981703 0.54981709 0.54981703 0.54981709 0.54981697 0.54981703 0.54981703 0.54981697 0.54981697 0.54981709 0.54981703 0.54981703 0.54981703 0.54981703 0.54981697 0.54981703 0.54981703 0.54981703 0.54981703 0.54981697 0.54981709 0.54981703 0.54981703 0.54981703 0.54981697 0.54981691 0.54981703 0.54981697 0.54981697 0.54981703 0.54981697 0.54981697 0.54981697 0.54981691 0.54981697 0.54981697 0.54981697 0.54981691 0.54981691 0.54981697
0.54982007 0.54982013 0.54982013 0.54982007 0.54982013 0.54982001 0.54982013 0.54982013 0.54982001 0.54982001 0.54982007 0.54982013 0.54982001 0.54982001 0.54982007 0.54981995 0.54982018 0.54982013 0.54982001 0.54982001 0.54982013 0.54982001 0.54982007 0.54982007 0.54982001 0.54982013 0.54982007 0.54982007 0.54982007 0.54982001 0.54982013 0.54982007 0.54982001 0.54981995 0.54981995 0.54982013 0.54982007 0.54982001 0.54982007 0.54982001 0.54981995 0.54982007 0.54981995 0.54982001 0.54982001 0.54982001 0.54982001 0.54982007 0.54981995 0.54982007 0.54982013 0.54982001 0.54982007 0.54982013 0.54982001 0.54982013 0.54982001 0.54982001 0.54982001 0.54982001 0.54982013 0.54982001 0.54982001 0.54982001 0.54982007 0.54982007 0.54981995 0.54982001 0.54982001 0.54982007 0.54982007 0.54982001 0.54981995 0.54982007 0.54982001 0.54981995 0.54982013 0.54982007 0.54982001 0.54982001 0.54982007 0.54982001 0.54981995 0.54981995 0.54982007 0.54982001 0.54982013 0.54981995 0.54981995 0.54982001 0.54982001 0.54982001 0.54981995 0.54982001 0.54981995 0.54981995 0.54982001 0.54981989 0.54982001 0.54982001 0.54981995 0.54982013 0.54982001 0.54982001 0.54982001 0.54981995 0.54981995 0.54981995 0.54981995 0.54982001 0.54981995 0.54982001 0.54982001 0.54982001 0.54981995 0.54981995 0.54982001 0.54982001 0.54981995 0.54982001 0.54982001 0.54981995 0.54982001 0.54981989 0.54982001 0.54982001 0.54981995 0.54981995 0.54981995 0.54982001 0.54982001 0.54982001 0.54982007 0.54981995 0.54982001 0.54982001 0.54982001 0.54982001 0.54982001 0.54981995 0.54982001 0.54981995 0.54982001 0.54982001 0.54981995 0.54982001 0.54981995 0.54981995 0.54981995 0.54981995 0.54982007 0.54982001 0.54981995 0.54982001 0.54981995 0.54982001 0.54982013 0.54981995 0.54981995 0.54981995 0.54981995 0.54982001 0.54982001 0.54981995 0.54982001 0.54982001 0.54981995 0.54981995 0.54981995 0.54981995 0.54982001 0.54982001 0.54981995 0.54981995 0.54982001 0.54981995 0.54981995 0.54982001 0.54981995 0.54981995 0.54982001 0.54981995 0.54982001 0.54981995 0.54981995 0.54981995 0.54981995 0.54981995 0.54982001 0.54982001 0.54981995 0.54981995 0.54982001 0.54982001 0.54981995 0.54981989 0.54981989 0.54981995 0.54981995 0.54981995 0.54981995 0.54981995 0.54981989 0.54982001 0.54981995 0.54981995 0.54981995 0.54981995 0.54981995 0.54981995 0.54981995 0.54981995 0.54982007 0.54981995 0.54981995 0.54981995 0.54982001 0.54981995 0.54981995 0.54982001 0.54981995 0.54981989 0.54982001 0.54982001 0.54981995 0.54981983 0.54981989 0.54981995 0.54981995 0.54981995 0.54981995 0.54981995 0.54981995 0.54981995 0.54981995 0.54981995 0.54981995 0.54981995 0.54981995 0.54981989 0.54982001 0.54981995 0.54981995 0.54981989 0.54981995 0.54981995 0.54981995 0.54981995 0.54981995 0.54981995 0.54981995 0.54981989 0.54981995 0.54982001 0.54981989 0.54981989 0.54981989 0.54981995 0.54982001 0.54981995 0.54982001 0.54981995 0.54981995 0.54981989 0.54981989 0.54981995
0.03246472 0.03210952 0.03175589 0.03140371 0.03105309 0.03070404 0.03035665 0.03001090 0.02966703 0.02932488 0.02898469 0.02864639 0.02831030 0.02797627 0.02764430 0.02731451 0.02698706 0.02666174 0.02633887 0.02601811 0.02569991 0.02538444 0.02507154 0.02476132 0.02445389 0.02414940 0.02384787 0.02354945 0.02325424 0.02296213 0.02267318 0.02238774 0.02210562 0.02182686 0.02155183 0.02128025 0.02101223 0.02074791 0.02048729 0.02023043 0.01997745 0.01972820 0.01948288 0.01924145 0.01900417 0.01877086 0.01854140 0.01831615 0.01809482 0.01787768 0.01766456 0.01745551 0.01725059 0.01704983 0.01685296 0.01666021 0.01647150 0.01628694 0.01610620 0.01592936 0.01575663 0.01558776 0.01542270 0.01526154 0.01510417 0.01495048 0.01480042 0.01465407 0.01451122 0.01437197 0.01423624 0.01410383 0.01397475 0.01384898 0.01372648 0.01360709 0.01349076 0.01337750 0.01326714 0.01315979 0.01305512 0.01295323 0.01285407 0.01275755 0.01266352 0.01257203 0.01248294 0.01239616 0.01231168 0.01222950 0.01214945 0.01207147 0.01199553 0.01192162 0.01184955 0.01177939 0.01171105 0.01164445 0.01157958 0.01151630 0.01145469 0.01139457 0.01133594 0.01127882 0.01122304 0.01116864 0.01111552 0.01106372 0.01101314 0.01096376 0.01091551 0.01086841 0.01082241 0.01077738 0.01073340 0.01069043 0.01064838 0.01060722 0.01056702 0.01052762 0.01048907 0.01045134 0.01041440 0.01037821 0.01034279 0.01030805 0.01027400 0.01024067 0.01020799 0.01017590 0.01014447 0.01011364 0.01008340 0.01005375 0.01002466 0.00999613 0.00996808 0.00994061 0.00991361 0.00988715 0.00986115 0.00983562 0.00981062 0.00978604 0.00976191 0.00973823 0.00971500 0.00969219 0.00966978 0.00964779 0.00962622 0.00960506 0.00958425 0.00956386 0.00954381 0.00952417 0.00950485 0.00948591 0.00946731 0.00944904 0.00943113 0.00941353 0.00939623 0.00937924 0.00936259 0.00934621 0.00933013 0.00931434 0.00929882 0.00928358 0.00926860 0.00925388 0.00923940 0.00922516 0.00921117 0.00919745 0.00918397 0.00917068 0.00915762 0.00914474 0.00913212 0.00911972 0.00910751 0.00909543 0.00908365 0.00907201 0.00906054 0.00904928 0.00903822 0.00902729 0.00901656 0.00900601 0.00899559 0.00898538 0.00897530 0.00896538 0.00895562 0.00894601 0.00893655 0.00892724 0.00891806 0.00890902 0.00890015 0.00889136 0.00888275 0.00887424 0.00886588 0.00885761 0.00884950 0.00884149 0.00883359 0.00882583 0.00881816 0.00881064 0.00880318 0.00879588 0.00878864 0.00878153 0.00877451 0.00876759 0.00876078 0.00875404 0.00874744 0.00874089 0.00873444 0.00872809 0.00872182 0.00871567 0.00870955 0.00870354 0.00869764 0.00869178 0.00868601 0.00868034 0.00867471 0.00866918 0.00866373 0.00865833 0.00865301 0.00864777 0.00864259 0.00863749 0.00863245 0.00862748 0.00862257 0.00861772 0.00861294 0.00860823 0.00860356 0.00859897 0.00859443 0.00858994 0.00858553 0.00858115 0.00857683 0.00857260 0.00856838 0.00856423 0.00856016 0.00855609 0.00855209 0.00854817 0.00854424 0.00854041 0.00853663 0.00853284
