377.06314087 376.64587402 376.22909546 375.81301880 375.39727783 374.98220825 374.56762695 374.15365601 373.74020386 373.32730103 372.91491699 372.50305176 372.09173584 371.68096924 371.27072144 370.86105347 370.45187378 370.04330444 369.63519287 369.22766113 368.82061768 368.41415405 368.00823975 367.60281372 367.19790649 366.79357910 366.38977051 365.98645020 365.58374023 365.18148804 364.77981567 364.37863159 363.97799683 363.57788086 363.17828369 362.77920532 362.38070679 361.98275757 361.58523560 361.18829346 360.79190063 360.39599609 360.00057983 359.60580444 359.21142578 358.81762695 358.42431641 358.03155518 357.63928223 357.24758911 356.85635376 356.46569824 356.07550049 355.68585205 355.29672241 354.90811157 354.51998901 354.13241577 353.74530029 353.35876465 352.97271729 352.58715820 352.20211792 351.81762695 351.43359375 351.05010986 350.66714478 350.28469849 349.90267944 349.52130127 349.14031982 348.75994873 348.38000488 348.00054932 347.62167358 347.24322510 346.86532593 346.48788452 346.11102295 345.73464966 345.35873413 344.98330688 344.60842896 344.23406982 343.86016846 343.48681641 343.11386108 342.74148560 342.36959839 341.99816895 341.62731934 341.25689697 340.88699341 340.51754761 340.14865112 339.78021240 339.41229248 339.04486084 338.67788696 338.31146240 337.94546509 337.57998657 337.21508789 336.85049438 336.48654175 336.12301636 335.75994873 335.39739990 335.03540039 334.67379761 334.31271362 333.95211792 333.59197998 333.23236084 332.87322998 332.51452637 332.15634155 331.79867554 331.44140625 331.08465576 330.72842407 330.37258911 330.01730347 329.66244507 329.30810547 328.95422363 328.60083008 328.24789429 327.89547729 327.54345703 327.19195557 326.84094238 326.49038696 326.14031982 325.79067993 325.44152832 325.09289551 324.74465942 324.39691162 324.04965210 323.70281982 323.35650635 323.01068115 322.66522217 322.32028198 321.97583008 321.63180542 321.28826904 320.94519043 320.60256958 320.26040649 319.91867065 319.57748413 319.23666382 318.89636230 318.55654907 318.21710205 317.87814331 317.53967285 317.20162964 316.86407471 316.52697754 316.19030762 315.85406494 315.51828003 315.18304443 314.84817505 314.51379395 314.17980957 313.84631348 313.51327515 313.18066406 312.84848022 312.51681519 312.18554688 311.85470581 311.52435303 311.19442749 310.86495972 310.53594971 310.20736694 309.87921143 309.55151367 309.22424316 308.89746094 308.57107544 308.24508667 307.91961670 307.59454346 307.26998901 306.94573975 306.62200928 306.29867554 305.97583008 305.65338135 305.33142090 305.00979614 304.68862915 304.36795044 304.04769897 303.72781372 303.40847778 303.08947754 302.77090454 302.45281982 302.13510132 301.81784058 301.50100708 301.18457031 300.86859131 300.55307007 300.23794556 299.92327881 299.60891724 299.29510498 298.98162842 298.66857910 298.35604858 298.04385376 297.73208618 297.42074585 297.10989380 296.79934692 296.48928833 296.17962646 295.87030029 295.56155396 295.25311279 294.94512939 294.63757324 294.33041382 294.02365112 293.71728516 293.41134644 293.10583496 292.80072021 292.49600220 292.19174194 291.88787842 291.58432007 291.28128052 290.97863770 290.67639160 290.37454224 290.07308960 289.77206421 289.47140503 289.17120361 288.87136841 288.57192993 288.27288818 287.97427368 287.67608643 287.37820435 287.08081055 286.78378296 286.48715210 286.19091797 285.89505005 285.59967041 285.30462646 285.00994873 284.71572876 284.42181396 284.12838745
368.94686890 368.54180908 368.13720703 367.73312378 367.32952881 366.92639160 366.52374268 366.12164307 365.71997070 365.31881714 364.91809082 364.51791382 364.11816406 363.71893311 363.32015991 362.92190552 362.52410889 362.12680054 361.72998047 361.33358765 360.93777466 360.54229736 360.14736938 359.75296021 359.35900879 358.96548462 358.57244873 358.17993164 357.78790283 357.39627075 357.00521851 356.61450195 356.22430420 355.83462524 355.44540405 355.05667114 354.66833496 354.28057861 353.89321899 353.50631714 353.11990356 352.73394775 352.34851074 351.96343994 351.57891846 351.19485474 350.81121826 350.42810059 350.04537964 349.66317749 349.28146362 348.90008545 348.51928711 348.13888550 347.75900269 347.37954712 347.00057983 346.62207031 346.24392700 345.86633301 345.48913574 345.11248779 344.73620605 344.36041260 343.98507690 343.61022949 343.23577881 342.86181641 342.48831177 342.11523438 341.74261475 341.37039185 340.99868774 340.62747192 340.25665283 339.88626099 339.51635742 339.14688110 338.77783203 338.40930176 338.04119873 337.67349243 337.30621338 336.93942261 336.57312012 336.20715332 335.84170532 335.47671509 335.11215210 334.74798584 334.38430786 334.02102661 333.65820312 333.29580688 332.93392944 332.57244873 332.21139526 331.85073853 331.49057007 331.13079834 330.77148438 330.41259766 330.05419922 329.69616699 329.33862305 328.98141479 328.62472534 328.26846313 327.91256714 327.55715942 327.20223999 326.84762573 326.49346924 326.13983154 325.78649902 325.43362427 325.08123779 324.72924805 324.37768555 324.02655029 323.67578125 323.32550049 322.97564697 322.62619019 322.27716064 321.92852783 321.58038330 321.23260498 320.88528442 320.53839111 320.19180298 319.84579468 319.50006104 319.15484619 318.80999756 318.46560669 318.12158203 317.77801514 317.43484497 317.09210205 316.74969482 316.40780640 316.06622314 315.72515869 315.38446045 315.04418945 314.70437622 314.36483765 314.02578735 313.68713379 313.34896851 313.01110840 312.67364502 312.33663940 312.00003052 311.66384888 311.32806396 310.99267578 310.65765381 310.32308960 309.98886108 309.65509033 309.32168579 308.98873901 308.65615845 308.32397461 307.99218750 307.66082764 307.32983398 306.99923706 306.66903687 306.33926392 306.00988770 305.68090820 305.35226440 305.02413940 304.69628906 304.36883545 304.04183960 303.71517944 303.38900757 303.06311035 302.73767090 302.41256714 302.08789062 301.76361084 301.43972778 301.11614990 300.79309082 300.47033691 300.14797974 299.82604980 299.50448608 299.18325806 298.86248779 298.54208374 298.22198486 297.90234375 297.58309937 297.26419067 296.94564819 296.62756348 296.30984497 295.99240112 295.67544556 295.35882568 295.04263306 294.72671509 294.41128540 294.09622192 293.78149414 293.46716309 293.15316772 292.83963013 292.52636719 292.21350098 291.90106201 291.58895874 291.27716064 290.96588135 290.65493774 290.34429932 290.03405762 289.72418213 289.41464233 289.10552979 288.79678345 288.48843384 288.18038940 287.87268066 287.56539917 287.25845337 286.95190430 286.64572144 286.33987427 286.03439331 285.72930908 285.42459106 285.12011719 284.81616211 284.51248169 284.20922852 283.90628052 283.60369873 283.30145264 282.99960327 282.69805908 282.39697266 282.09616089 281.79574585 281.49566650 281.19598389 280.89663696 280.59759521 280.29891968 280.00064087 279.70272827 279.40509033 279.10784912 278.81094360 278.51446533 278.21823120 277.92242432 277.62692261 277.33181763
371.44631958 371.04876709 370.65167236 370.25512695 369.85910034 369.46356201 369.06857300 368.67410278 368.28009033 367.88659668 367.49368286 367.10128784 366.70932007 366.31790161 365.92703247 365.53656006 365.14672852 364.75735474 364.36843872 363.98010254 363.59225464 363.20489502 362.81808472 362.43176270 362.04595947 361.66058350 361.27578735 360.89144897 360.50762939 360.12438965 359.74157715 359.35922241 358.97744751 358.59609985 358.21533203 357.83502197 357.45520020 357.07586670 356.69705200 356.31875610 355.94088745 355.56359863 355.18676758 354.81042480 354.43453979 354.05923462 353.68435669 353.30999756 352.93612671 352.56268311 352.18981934 351.81741333 351.44546509 351.07406616 350.70312500 350.33270264 349.96267700 349.59317017 349.22418213 348.85565186 348.48754883 348.12005615 347.75305176 347.38638306 347.02029419 346.65469360 346.28952026 345.92489624 345.56072998 345.19696045 344.83377075 344.47097778 344.10870361 343.74694824 343.38558960 343.02468872 342.66433716 342.30447388 341.94500732 341.58605957 341.22760010 340.86956787 340.51199341 340.15493774 339.79833984 339.44219971 339.08654785 338.73135376 338.37661743 338.02230835 337.66851807 337.31512451 336.96224976 336.60983276 336.25790405 335.90643311 335.55541992 335.20483398 334.85470581 334.50509644 334.15591431 333.80712891 333.45892334 333.11111450 332.76376343 332.41687012 332.07043457 331.72442627 331.37887573 331.03381348 330.68917847 330.34503174 330.00122070 329.65805054 329.31524658 328.97283936 328.63088989 328.28942871 327.94842529 327.60778809 327.26766968 326.92803955 326.58874512 326.24993896 325.91165161 325.57373047 325.23626709 324.89923096 324.56268311 324.22650146 323.89086914 323.55560303 323.22079468 322.88638306 322.55245972 322.21893311 321.88589478 321.55328369 321.22106934 320.88925171 320.55798340 320.22708130 319.89657593 319.56661987 319.23693848 318.90777588 318.57910156 318.25076294 317.92291260 317.59542847 317.26840210 316.94189453 316.61569214 316.28991699 315.96463013 315.63970947 315.31530762 314.99124146 314.66763306 314.34439087 314.02163696 313.69931030 313.37731934 313.05581665 312.73471069 312.41403198 312.09378052 311.77392578 311.45449829 311.13552856 310.81695557 310.49874878 310.18099976 309.86361694 309.54669189 309.23013306 308.91406250 308.59829712 308.28305054 307.96817017 307.65368652 307.33966064 307.02590942 306.71264648 306.39981079 306.08737183 305.77539062 305.46371460 305.15249634 304.84164429 304.53118896 304.22122192 303.91159058 303.60241699 303.29354858 302.98513794 302.67712402 302.36947632 302.06228638 301.75537109 301.44897461 301.14291382 300.83728027 300.53210449 300.22717285 299.92272949 299.61865234 299.31497192 299.01165771 298.70874023 298.40628052 298.10412598 297.80245972 297.50103760 297.20013428 296.89950562 296.59936523 296.29953003 296.00012207 295.70111084 295.40249634 295.10418701 294.80627441 294.50881958 294.21166992 293.91494751 293.61856079 293.32257080 293.02703857 292.73175049 292.43688965 292.14242554 291.84832764 291.55459595 291.26126099 290.96829224 290.67572021 290.38345337 290.09155273 289.80007935 289.50894165 289.21826172 288.92785645 288.63781738 288.34817505 288.05886841 287.77001953 287.48144531 287.19326782 286.90545654 286.61804199 286.33090210 286.04421997 285.75784302 285.47186279 285.18624878 284.90097046 284.61602783 284.33148193 284.04724121 283.76339722 283.47991943 283.19677734 282.91400146 282.63159180
372.03933716 371.63616943 371.23361206 370.83148193 370.42984009 370.02871704 369.62805176 369.22796631 368.82836914 368.42922974 368.03063965 367.63253784 367.23492432 366.83776855 366.44116211 366.04501343 365.64938354 365.25424194 364.85961914 364.46545410 364.07180786 363.67864990 363.28598022 362.89379883 362.50219727 362.11099243 361.72024536 361.33007812 360.94030762 360.55108643 360.16235352 359.77413940 359.38632202 358.99902344 358.61224365 358.22601318 357.84011841 357.45486450 357.06994629 356.68557739 356.30175781 355.91833496 355.53543091 355.15301514 354.77105713 354.38961792 354.00854492 353.62808228 353.24801636 352.86849976 352.48944092 352.11087036 351.73275757 351.35513306 350.97796631 350.60128784 350.22509766 349.84936523 349.47409058 349.09930420 348.72497559 348.35119629 347.97781372 347.60501099 347.23251343 346.86059570 346.48919678 346.11807251 345.74758911 345.37753296 345.00799561 344.63882446 344.27014160 343.90200806 343.53430176 343.16699219 342.80026245 342.43389893 342.06805420 341.70263672 341.33770752 340.97320557 340.60928345 340.24575806 339.88262939 339.52001953 339.15786743 338.79617310 338.43490601 338.07412720 337.71380615 337.35397339 336.99453735 336.63555908 336.27716064 335.91906738 335.56143188 335.20437622 334.84765625 334.49145508 334.13565063 333.78036499 333.42550659 333.07107544 332.71716309 332.36361694 332.01058960 331.65798950 331.30584717 330.95416260 330.60284424 330.25201416 329.90167236 329.55175781 329.20230103 328.85324097 328.50466919 328.15649414 327.80883789 327.46157837 327.11477661 326.76843262 326.42248535 326.07699585 325.73193359 325.38735962 325.04315186 324.69946289 324.35620117 324.01333618 323.67092896 323.32897949 322.98742676 322.64630127 322.30563354 321.96539307 321.62564087 321.28619385 320.94732666 320.60882568 320.27075195 319.93310547 319.59588623 319.25906372 318.92285156 318.58688354 318.25140381 317.91635132 317.58175659 317.24746704 316.91372681 316.58038330 316.24743652 315.91500854 315.58288574 315.25122070 314.91998291 314.58926392 314.25872803 313.92883301 313.59927368 313.27017212 312.94146729 312.61322021 312.28533936 311.95791626 311.63088989 311.30422974 310.97811890 310.65231323 310.32693481 310.00204468 309.67749023 309.35336304 309.02969360 308.70639038 308.38351440 308.06109619 307.73898315 307.41738892 307.09613037 306.77532959 306.45489502 306.13491821 305.81530762 305.49612427 305.17736816 304.85897827 304.54098511 304.22348022 303.90631104 303.58953857 303.27322388 302.95727539 302.64169312 302.32656860 302.01184082 301.69750977 301.38354492 301.07000732 300.75686646 300.44418335 300.13177490 299.81991577 299.50833130 299.19717407 298.88641357 298.57604980 298.26608276 297.95651245 297.64736938 297.33859253 297.03021240 296.72219849 296.41464233 296.10742188 295.80059814 295.49417114 295.18807983 294.88244629 294.57717896 294.27233887 293.96780396 293.66372681 293.35998535 293.05664062 292.75375366 292.45114136 292.14898682 291.84716797 291.54574585 291.24472046 290.94409180 290.64379883 290.34390259 290.04440308 289.74526978 289.44656372 289.14816284 288.85018921 288.55255127 288.25531006 287.95846558 287.66195679 287.36584473 287.07009888 286.77474976 286.47976685 286.18515015 285.89089966 285.59695435 285.30352783 285.01037598 284.71765137 284.42523193 284.13320923 283.84164429 283.55029297 283.25936890 282.96884155 282.67868042 282.38879395 282.09936523 281.81024170 281.52154541
367.23583984 366.83139038 366.42745972 366.02407837 365.62112427 365.21881104 364.81701660 364.41571045 364.01492310 363.61459351 363.21487427 362.81570435 362.41693115 362.01873779 361.62112427 361.22399902 360.82736206 360.43133545 360.03573608 359.64065552 359.24606323 358.85205078 358.45849609 358.06546021 357.67300415 357.28106689 356.88958740 356.49865723 356.10818481 355.71829224 355.32885742 354.93997192 354.55160522 354.16366577 353.77630615 353.38946533 353.00311279 352.61727905 352.23190308 351.84713745 351.46276855 351.07897949 350.69567871 350.31283569 349.93054199 349.54879761 349.16744995 348.78668213 348.40637207 348.02664185 347.64736938 347.26858521 346.89028931 346.51251221 346.13522339 345.75842285 345.38214111 345.00631714 344.63107300 344.25628662 343.88195801 343.50814819 343.13488770 342.76205444 342.38967896 342.01791382 341.64654541 341.27569580 340.90539551 340.53549194 340.16610718 339.79727173 339.42886353 339.06097412 338.69354248 338.32666016 337.96017456 337.59423828 337.22879028 336.86380005 336.49932861 336.13537598 335.77175903 335.40875244 335.04620361 334.68411255 334.32254028 333.96145630 333.60079956 333.24069214 332.88098145 332.52178955 332.16314697 331.80487061 331.44711304 331.08984375 330.73306274 330.37667847 330.02087402 329.66552734 329.31063843 328.95620728 328.60223389 328.24874878 327.89575195 327.54321289 327.19110107 326.83953857 326.48846436 326.13775635 325.78756714 325.43789673 325.08859253 324.73980713 324.39151001 324.04364014 323.69628906 323.34930420 323.00286865 322.65689087 322.31137085 321.96627808 321.62170410 321.27746582 320.93380737 320.59066772 320.24783325 319.90557861 319.56365967 319.22232056 318.88137817 318.54092407 318.20092773 317.86132812 317.52221680 317.18353271 316.84536743 316.50762939 316.17028809 315.83346558 315.49703979 315.16110229 314.82568359 314.49057007 314.15597534 313.82186890 313.48815918 313.15493774 312.82211304 312.48977661 312.15783691 311.82638550 311.49536133 311.16479492 310.83465576 310.50497437 310.17572021 309.84689331 309.51852417 309.19061279 308.86315918 308.53613281 308.20947266 307.88339233 307.55758667 307.23229980 306.90747070 306.58303833 306.25900269 305.93545532 305.61233521 305.28967285 304.96737671 304.64559937 304.32418823 304.00320435 303.68270874 303.36260986 303.04296875 302.72366333 302.40484619 302.08645630 301.76855469 301.45095825 301.13388062 300.81719971 300.50097656 300.18511963 299.86965942 299.55471802 299.24011230 298.92596436 298.61227417 298.29891968 297.98602295 297.67361450 297.36151123 297.04992676 296.73870850 296.42791748 296.11752319 295.80755615 295.49804688 295.18884277 294.88021851 294.57183838 294.26394653 293.95645142 293.64935303 293.34271240 293.03640747 292.73059082 292.42517090 292.12008667 291.81546021 291.51129150 291.20748901 290.90402222 290.60107422 290.29849243 289.99624634 289.69445801 289.39312744 289.09216309 288.79150391 288.49133301 288.19158936 287.89221191 287.59317017 287.29461670 286.99642944 286.69863892 286.40121460 286.10427856 285.80767822 285.51141357 285.21560669 284.92016602 284.62518311 284.33053589 284.03628540 283.74246216 283.44894409 283.15591431 282.86315918 282.57092285 282.27902222 281.98748779 281.69631958 281.40557861 281.11523438 280.82522583 280.53561401 280.24639893 279.95758057 279.66918945 279.38104248 279.09341431 278.80609131 278.51916504 278.23263550 277.94644165 277.66070557 277.37527466 277.09024048
373.28067017 372.87368774 372.46719360 372.06115723 371.65573120 371.25076294 370.84634399 370.44241333 370.03909302 369.63619995 369.23382568 368.83193970 368.43066406 368.02981567 367.62951660 367.22976685 366.83044434 366.43170166 366.03338623 365.63574219 365.23846436 364.84170532 364.44549561 364.04980469 363.65466309 363.25994873 362.86569214 362.47201538 362.07885742 361.68615723 361.29403687 360.90240479 360.51123047 360.12051392 359.73037720 359.34072876 358.95159912 358.56292725 358.17477417 357.78707886 357.39993286 357.01333618 356.62710571 356.24145508 355.85632324 355.47158813 355.08743286 354.70376587 354.32055664 353.93789673 353.55566406 353.17398071 352.79275513 352.41201782 352.03179932 351.65200806 351.27276611 350.89404297 350.51574707 350.13796997 349.76071167 349.38388062 349.00750732 348.63171387 348.25631714 347.88143921 347.50704956 347.13311768 346.75976562 346.38674927 346.01428223 345.64230347 345.27084351 344.89978027 344.52923584 344.15914917 343.78958130 343.42050171 343.05178833 342.68368530 342.31597900 341.94876099 341.58209229 341.21585083 340.85006714 340.48471069 340.11996460 339.75552368 339.39166260 339.02822876 338.66528320 338.30276489 337.94079590 337.57925415 337.21817017 336.85748291 336.49737549 336.13772583 335.77847290 335.41973877 335.06140137 334.70358276 334.34625244 333.98937988 333.63290405 333.27688599 332.92138672 332.56640625 332.21179199 331.85763550 331.50399780 331.15075684 330.79800415 330.44567871 330.09387207 329.74240112 329.39147949 329.04098511 328.69100952 328.34143066 327.99227905 327.64361572 327.29541016 326.94757080 326.60025024 326.25335693 325.90695190 325.56097412 325.21545410 324.87036133 324.52572632 324.18157959 323.83782959 323.49450684 323.15161133 322.80923462 322.46725464 322.12573242 321.78466797 321.44396973 321.10379028 320.76403809 320.42468262 320.08578491 319.74734497 319.40936279 319.07174683 318.73464966 318.39791870 318.06167603 317.72583008 317.39041138 317.05545044 316.72094727 316.38681030 316.05316162 315.71990967 315.38711548 315.05474854 314.72277832 314.39129639 314.06018066 313.72952271 313.39926147 313.06945801 312.74005127 312.41119385 312.08258057 311.75448608 311.42678833 311.09954834 310.77270508 310.44628906 310.12023926 309.79467773 309.46951294 309.14480591 308.82046509 308.49655151 308.17303467 307.85000610 307.52734375 307.20507812 306.88327026 306.56182861 306.24087524 305.92019653 305.60006714 305.28036499 304.96099854 304.64202881 304.32351685 304.00540161 303.68771362 303.37036133 303.05352783 302.73699951 302.42092896 302.10528564 301.78994751 301.47512817 301.16067505 300.84658813 300.53295898 300.21972656 299.90686035 299.59439087 299.28237915 298.97070312 298.65951538 298.34863281 298.03817749 297.72814941 297.41845703 297.10919189 296.80032349 296.49185181 296.18383789 295.87609863 295.56884766 295.26190186 294.95541382 294.64935303 294.34362793 294.03829956 293.73330688 293.42880249 293.12457275 292.82086182 292.51748657 292.21444702 291.91180420 291.60964966 291.30780029 291.00631714 290.70529175 290.40451050 290.10424805 289.80429077 289.50476074 289.20559692 288.90682983 288.60842896 288.31039429 288.01272583 287.71548462 287.41857910 287.12210083 286.82595825 286.53015137 286.23480225 285.93975830 285.64511108 285.35089111 285.05697632 284.76348877 284.47027588 284.17749023 283.88510132 283.59307861 283.30139160 283.01007080 282.71917725 282.42861938 282.13839722
363.65740967 363.24920654 362.84149170 362.43435669 362.02767944 361.62155151 361.21594238 360.81079102 360.40625000 360.00210571 359.59860229 359.19555664 358.79296875 358.39093018 357.98947144 357.58840942 357.18795776 356.78793335 356.38842773 355.98944092 355.59100342 355.19302368 354.79556274 354.39868164 354.00219727 353.60632324 353.21084595 352.81588745 352.42144775 352.02755737 351.63412476 351.24121094 350.84881592 350.45684814 350.06542969 349.67453003 349.28414917 348.89422607 348.50479126 348.11584473 347.72744751 347.33953857 346.95208740 346.56512451 346.17871094 345.79278564 345.40731812 345.02236938 344.63790894 344.25393677 343.87048340 343.48754883 343.10501099 342.72302246 342.34152222 341.96044922 341.57989502 341.19992065 340.82034302 340.44131470 340.06268311 339.68457031 339.30700684 338.92980957 338.55319214 338.17703247 337.80136108 337.42623901 337.05154419 336.67727661 336.30355835 335.93026733 335.55752563 335.18524170 334.81344604 334.44210815 334.07122803 333.70089722 333.33096313 332.96154785 332.59259033 332.22415161 331.85614014 331.48858643 331.12158203 330.75500488 330.38891602 330.02328491 329.65811157 329.29345703 328.92922974 328.56549072 328.20227051 327.83941650 327.47711182 327.11526489 326.75390625 326.39297485 326.03253174 325.67251587 325.31298828 324.95397949 324.59539795 324.23727417 323.87954712 323.52236938 323.16567993 322.80938721 322.45355225 322.09823608 321.74334717 321.38888550 321.03491211 320.68142700 320.32836914 319.97579956 319.62365723 319.27194214 318.92071533 318.56997681 318.21969604 317.86978149 317.52038574 317.17141724 316.82293701 316.47494507 316.12734985 315.78018188 315.43353271 315.08721924 314.74148560 314.39614868 314.05123901 313.70678711 313.36282349 313.01925659 312.67614746 312.33349609 311.99133301 311.64953613 311.30816650 310.96731567 310.62689209 310.28692627 309.94738770 309.60827637 309.26962280 308.93136597 308.59359741 308.25628662 307.91937256 307.58291626 307.24682617 306.91125488 306.57614136 306.24142456 305.90716553 305.57324219 305.23986816 304.90686035 304.57427979 304.24224854 303.91052246 303.57925415 303.24847412 302.91806030 302.58810425 302.25860596 301.92950439 301.60086060 301.27255249 300.94479370 300.61737061 300.29040527 299.96389771 299.63781738 299.31207275 298.98681641 298.66198730 298.33755493 298.01354980 297.69000244 297.36682129 297.04412842 296.72180176 296.39990234 296.07846069 295.75738525 295.43676758 295.11648560 294.79672241 294.47738647 294.15838623 293.83984375 293.52169800 293.20397949 292.88665771 292.56973267 292.25323486 291.93722534 291.62155151 291.30627441 290.99142456 290.67697144 290.36297607 290.04934692 289.73611450 289.42333984 289.11093140 288.79895020 288.48742676 288.17620850 287.86547852 287.55505371 287.24508667 286.93554688 286.62637329 286.31765747 286.00924683 285.70129395 285.39373779 285.08660889 284.77984619 284.47351074 284.16757202 283.86193848 283.55682373 283.25201416 282.94766235 282.64370728 282.34008789 282.03689575 281.73410034 281.43170166 281.12963867 280.82809448 280.52685547 280.22601318 279.92550659 279.62548828 279.32586670 279.02651978 278.72769165 278.42913818 278.13101196 277.83328247 277.53594971 277.23895264 276.94244385 276.64624023 276.35043335 276.05502319 275.75991821 275.46527100 275.17098999 274.87710571 274.58355713 274.29046631 273.99774170 273.70532227 273.41336060 273.12167358 272.83041382 272.53952026 272.24908447
381.16342163 380.76315308 380.36331177 379.96398926 379.56521606 379.16699219 378.76922607 378.37197876 377.97531128 377.57916260 377.18338013 376.78820801 376.39355469 375.99938965 375.60580444 375.21267700 374.82003784 374.42794800 374.03634644 373.64526367 373.25466919 372.86459351 372.47503662 372.08596802 371.69738770 371.30932617 370.92181396 370.53472900 370.14819336 369.76217651 369.37661743 368.99160767 368.60705566 368.22305298 367.83944702 367.45645142 367.07388306 366.69183350 366.31033325 365.92926025 365.54873657 365.16860962 364.78912354 364.41003418 364.03143311 363.65332031 363.27575684 362.89865112 362.52200317 362.14596558 361.77029419 361.39514160 361.02050781 360.64627075 360.27264404 359.89944458 359.52667236 359.15451050 358.78277588 358.41152954 358.04074097 357.67050171 357.30068970 356.93130493 356.56243896 356.19409180 355.82620239 355.45877075 355.09182739 354.72540283 354.35940552 353.99386597 353.62893677 353.26434326 352.90029907 352.53668213 352.17349243 351.81088257 351.44869995 351.08700562 350.72573853 350.36499023 350.00469971 349.64483643 349.28543091 348.92657471 348.56814575 348.21017456 347.85266113 347.49566650 347.13906860 346.78295898 346.42730713 346.07211304 345.71740723 345.36315918 345.00936890 344.65603638 344.30313110 343.95071411 343.59881592 343.24722290 342.89620972 342.54562378 342.19546509 341.84579468 341.49658203 341.14773560 340.79946899 340.45156860 340.10418701 339.75720215 339.41070557 339.06460571 338.71902466 338.37387085 338.02914429 337.68487549 337.34103394 336.99761963 336.65469360 336.31219482 335.97015381 335.62854004 335.28732300 334.94665527 334.60641479 334.26660156 333.92718506 333.58816528 333.24966431 332.91159058 332.57391357 332.23672485 331.89996338 331.56356812 331.22772217 330.89224243 330.55718994 330.22259521 329.88839722 329.55465698 329.22137451 328.88848877 328.55606079 328.22406006 327.89248657 327.56130981 327.23059082 326.90020752 326.57037354 326.24087524 325.91183472 325.58328247 325.25509644 324.92727661 324.59994507 324.27304077 323.94656372 323.62042236 323.29479980 322.96951294 322.64474487 322.32031250 321.99633789 321.67272949 321.34954834 321.02685547 320.70449829 320.38262939 320.06109619 319.73999023 319.41931152 319.09902954 318.77914429 318.45968628 318.14071655 317.82205200 317.50384521 317.18600464 316.86859131 316.55157471 316.23498535 315.91882324 315.60296631 315.28759766 314.97265625 314.65802002 314.34381104 314.03002930 313.71667480 313.40368652 313.09109497 312.77893066 312.46707153 312.15576172 311.84475708 311.53408813 311.22390747 310.91406250 310.60467529 310.29562378 309.98690796 309.67874146 309.37091064 309.06344604 308.75637817 308.44967651 308.14337158 307.83743286 307.53192139 307.22671509 306.92202759 306.61761475 306.31365967 306.01010132 305.70678711 305.40405273 305.10159302 304.79946899 304.49780273 304.19644165 303.89553833 303.59497070 303.29473877 302.99496460 302.69552612 302.39651489 302.09783936 301.79949951 301.50155640 301.20404053 300.90682983 300.61004639 300.31359863 300.01751709 299.72183228 299.42648315 299.13153076 298.83697510 298.54269409 298.24887085 297.95535278 297.66220093 297.36947632 297.07705688 296.78503418 296.49331665 296.20202637 295.91107178 295.62051392 295.33020020 295.04037476 294.75082397 294.46170044 294.17294312 293.88449097 293.59640503 293.30862427 293.02130127 292.73425293 292.44760132 292.16128540 291.87530518 291.58969116
358.00231934 357.60324097 357.20468140 356.80657959 356.40905762 356.01199341 355.61535645 355.21936035 354.82382202 354.42871094 354.03414917 353.64004517 353.24649048 352.85336304 352.46078491 352.06869507 351.67709351 351.28601074 350.89538574 350.50531006 350.11563110 349.72653198 349.33789062 348.94973755 348.56201172 348.17492676 347.78823853 347.40209961 347.01635742 346.63119507 346.24645996 345.86221313 345.47845459 345.09521484 344.71246338 344.33013916 343.94836426 343.56701660 343.18624878 342.80584717 342.42605591 342.04666138 341.66772461 341.28939819 340.91140747 340.53402710 340.15701294 339.78051758 339.40447998 339.02896118 338.65390015 338.27938843 337.90527344 337.53164673 337.15850830 336.78588867 336.41366577 336.04199219 335.67071533 335.29998779 334.92965698 334.55987549 334.19055176 333.82168579 333.45327759 333.08535767 332.71789551 332.35092163 331.98443604 331.61840820 331.25277710 330.88772583 330.52307129 330.15893555 329.79522705 329.43200684 329.06927490 328.70690918 328.34512329 327.98373413 327.62280273 327.26239014 326.90246582 326.54287720 326.18380737 325.82525635 325.46710205 325.10946655 324.75225830 324.39550781 324.03921509 323.68338013 323.32806396 322.97311401 322.61865234 322.26464844 321.91110229 321.55801392 321.20538330 320.85321045 320.50152588 320.15023804 319.79943848 319.44903564 319.09915161 318.74969482 318.40069580 318.05212402 317.70404053 317.35635376 317.00912476 316.66238403 316.31607056 315.97021484 315.62481689 315.27981567 314.93527222 314.59121704 314.24755859 313.90441895 313.56170654 313.21936035 312.87747192 312.53610229 312.19509888 311.85458374 311.51452637 311.17486572 310.83566284 310.49685669 310.15856934 309.82061768 309.48315430 309.14614868 308.80957031 308.47341919 308.13769531 307.80239868 307.46759033 307.13317871 306.79919434 306.46563721 306.13253784 305.79986572 305.46759033 305.13580322 304.80441284 304.47348022 304.14294434 303.81283569 303.48318481 303.15393066 302.82513428 302.49673462 302.16876221 301.84124756 301.51416016 301.18740845 300.86123657 300.53533936 300.20983887 299.88491821 299.56030273 299.23614502 298.91244507 298.58914185 298.26626587 297.94378662 297.62170410 297.30004883 296.97885132 296.65811157 296.33764648 296.01770020 295.69818115 295.37899780 295.06027222 294.74197388 294.42407227 294.10656738 293.78948975 293.47286987 293.15655518 292.84072876 292.52529907 292.21029663 291.89569092 291.58145142 291.26766968 290.95428467 290.64132690 290.32873535 290.01657104 289.70477295 289.39340210 289.08242798 288.77191162 288.46170044 288.15200806 287.84265137 287.53366089 287.22515869 286.91702271 286.60922241 286.30187988 285.99490356 285.68838501 285.38223267 285.07647705 284.77111816 284.46612549 284.16156006 283.85742188 283.55361938 283.25018311 282.94717407 282.64459229 282.34237671 282.04058838 281.73913574 281.43811035 281.13748169 280.83718872 280.53729248 280.23782349 279.93872070 279.64001465 279.34164429 279.04370117 278.74621582 278.44900513 278.15222168 277.85583496 277.55981445 277.26419067 276.96890259 276.67404175 276.37954712 276.08538818 275.79168701 275.49835205 275.20535278 274.91275024 274.62048340 274.32867432 274.03720093 273.74615479 273.45541382 273.16503906 272.87509155 272.58551025 272.29626465 272.00741577 271.71893311 271.43084717 271.14312744 270.85571289 270.56872559 270.28207397 269.99588013 269.70996094 269.42440796 269.13928223 268.85446167 268.57003784
367.88998413 367.47668457 367.06384277 366.65158081 366.23980713 365.82861328 365.41793823 365.00778198 364.59817505 364.18908691 363.78045654 363.37249756 362.96496582 362.55795288 362.15145874 361.74557495 361.34008789 360.93524170 360.53088379 360.12701416 359.72375488 359.32095337 358.91864014 358.51690674 358.11572266 357.71493530 357.31478882 356.91510010 356.51593018 356.11737061 355.71917725 355.32156372 354.92453003 354.52792358 354.13189697 353.73632812 353.34127808 352.94680786 352.55282593 352.15933228 351.76629639 351.37387085 350.98199463 350.59048462 350.19955444 349.80911255 349.41918945 349.02978516 348.64080811 348.25247192 347.86453247 347.47711182 347.09027100 346.70385742 346.31799316 345.93258667 345.54769897 345.16326904 344.77947998 344.39611816 344.01321411 343.63082886 343.24893188 342.86758423 342.48669434 342.10635376 341.72640991 341.34701538 340.96810913 340.58972168 340.21182251 339.83438110 339.45742798 339.08102417 338.70507812 338.32958984 337.95462036 337.58016968 337.20617676 336.83270264 336.45962524 336.08715820 335.71514893 335.34353638 334.97250366 334.60195923 334.23184204 333.86224365 333.49307251 333.12438965 332.75625610 332.38854980 332.02136230 331.65460205 331.28842163 330.92263794 330.55728149 330.19250488 329.82812500 329.46426392 329.10089111 328.73797607 328.37551880 328.01354980 327.65209961 327.29107666 326.93051147 326.57043457 326.21081543 325.85165405 325.49301147 325.13482666 324.77706909 324.41986084 324.06301880 323.70672607 323.35086060 322.99545288 322.64050293 322.28604126 321.93200684 321.57846069 321.22534180 320.87274170 320.52053833 320.16885376 319.81756592 319.46682739 319.11645508 318.76663208 318.41720581 318.06817627 317.71972656 317.37164307 317.02404785 316.67694092 316.33020020 315.98394775 315.63821411 315.29284668 314.94796753 314.60351562 314.25952148 313.91595459 313.57287598 313.23025513 312.88803101 312.54629517 312.20495605 311.86410522 311.52365112 311.18371582 310.84417725 310.50506592 310.16644287 309.82818604 309.49044800 309.15310669 308.81622314 308.47976685 308.14373779 307.80816650 307.47299194 307.13830566 306.80407715 306.47021484 306.13684082 305.80380249 305.47128296 305.13916016 304.80749512 304.47625732 304.14541626 303.81503296 303.48501587 303.15551758 302.82638550 302.49777222 302.16949463 301.84167480 301.51422119 301.18728638 300.86071777 300.53460693 300.20886230 299.88357544 299.55868530 299.23425293 298.91021729 298.58663940 298.26339722 297.94064331 297.61825562 297.29632568 296.97476196 296.65371704 296.33294678 296.01263428 295.69284058 295.37338257 295.05432129 294.73568726 294.41741943 294.09963989 293.78219604 293.46520996 293.14868164 292.83242798 292.51666260 292.20129395 291.88629150 291.57174683 291.25759888 290.94384766 290.63049316 290.31756592 290.00497437 289.69284058 289.38110352 289.06973267 288.75878906 288.44824219 288.13809204 287.82827759 287.51889038 287.20996094 286.90142822 286.59323120 286.28540039 285.97799683 285.67105103 285.36441040 285.05819702 284.75228882 284.44689941 284.14184570 283.83721924 283.53292847 283.22909546 282.92556763 282.62243652 282.31976318 282.01736450 281.71542358 281.41381836 281.11267090 280.81182861 280.51138306 280.21136475 279.91168213 279.61236572 279.31350708 279.01492310 278.71679688 278.41900635 278.12161255 277.82455444 277.52795410 277.23159790 276.93576050 276.64022827 276.34506226 276.05023193 275.75582886 275.46182251
